ply
format ascii 1.0
element vertex 1274
property float x
property float y
property float z
property uchar red
property uchar green
property uchar blue
end_header
-4.84783 -15.2453 -0.279238 255 255 255
-4.96273 -14.8925 -0.274003 255 255 255
-4.87928 -14.6421 -0.269395 255 255 255
-4.98854 -14.309 -0.264509 255 255 255
-4.91218 -14.09 -0.26046 255 255 255
-5.01806 -13.772 -0.255852 255 255 255
-4.93454 -13.5428 -0.251594 255 255 255
-5.0327 -13.2417 -0.247266 255 255 255
-4.95313 -13.0324 -0.243356 255 255 255
-0.0444236 -1.00938 -0.270725 255 255 255
-0.0464621 -1.0557 -0.283148 255 255 255
-0.0592955 -1.02216 -0.274348 255 255 255
-0.0617569 -1.06459 -0.285736 255 255 255
-0.0757369 -1.05401 -0.283148 255 255 255
-0.0725524 -1.00969 -0.271242 255 255 255
-0.0899497 -1.04707 -0.281595 255 255 255
-0.0889576 -1.03552 -0.278489 255 255 255
-0.104953 -1.0515 -0.283148 255 255 255
-0.104953 -1.0515 -0.283148 255 255 255
-0.117179 -1.02688 -0.276936 255 255 255
-0.121122 -1.06143 -0.286254 255 255 255
-0.132308 -1.03283 -0.279007 255 255 255
-0.135254 -1.05582 -0.285219 255 255 255
-0.149798 -1.05386 -0.285219 255 255 255
-0.145992 -1.02708 -0.277972 255 255 255
-0.162707 -1.04021 -0.282113 255 255 255
-0.16211 -1.03639 -0.281077 255 255 255
-0.178982 -1.04929 -0.285219 255 255 255
-0.180282 -1.05691 -0.287289 255 255 255
-0.190804 -1.0315 -0.281077 255 255 255
-0.193615 -1.04669 -0.285219 255 255 255
-0.207455 -1.0401 -0.284183 255 255 255
-0.208588 -1.04578 -0.285736 255 255 255
-6.28865 -87.517 1.53155 255 255 255
-4.42424 -25.9374 0.459278 255 255 255
-4.40474 -25.823 0.457253 255 255 255
-4.43168 -23.9579 0.42528 255 255 255
-4.77122 -23.9211 0.425769 255 255 255
-4.76966 -23.9133 0.425629 255 255 255
-0.0250193 -0.568482 -0.131371 255 255 255
-0.0267329 -0.607419 -0.140369 255 255 255
-0.0352112 -0.606986 -0.140369 255 255 255
-0.0352112 -0.606986 -0.140369 255 255 255
-0.0435768 -0.606443 -0.140369 255 255 255
-0.0435768 -0.606443 -0.140369 255 255 255
-0.0520398 -0.605776 -0.140369 255 255 255
-0.0520398 -0.605776 -0.140369 255 255 255
-0.0603871 -0.605001 -0.140369 255 255 255
-0.0603871 -0.605001 -0.140369 255 255 255
-0.0689338 -0.604087 -0.140369 255 255 255
-0.0772562 -0.603079 -0.140369 255 255 255
-0.0855639 -0.601956 -0.140369 255 255 255
-5.08191 -87.6043 4.59887 255 255 255
-5.08492 -87.6561 4.60159 255 255 255
-4.02368 -40.3121 2.12317 255 255 255
-4.43645 -23.9837 1.27825 255 255 255
-4.44735 -24.0426 1.28139 255 255 255
-4.80213 -24.0761 1.28663 255 255 255
-0.433588 -9.85189 -1.91687 255 255 255
-0.55973 -9.64888 -1.87871 255 255 255
-0.692713 -9.64025 -1.87871 255 255 255
-0.692713 -9.64025 -1.87871 255 255 255
-0.827244 -9.62963 -1.87871 255 255 255
-0.820186 -9.54748 -1.86268 255 255 255
-0.951356 -9.53136 -1.86191 255 255 255
-0.946286 -9.48056 -1.85199 255 255 255
-1.08333 -9.49355 -1.85733 255 255 255
-1.08333 -9.49355 -1.85733 255 255 255
-1.21512 -9.4855 -1.85886 255 255 255
-1.22061 -9.52834 -1.86726 255 255 255
-1.35573 -9.53782 -1.8726 255 255 255
-1.36015 -9.56892 -1.87871 255 255 255
-1.49362 -9.54899 -1.87871 255 255 255
-1.49362 -9.54899 -1.87871 255 255 255
-1.63769 -9.60103 -1.89321 255 255 255
-1.63372 -9.57781 -1.88863 255 255 255
-1.77586 -9.6004 -1.89779 255 255 255
-1.77586 -9.6004 -1.89779 255 255 255
-1.90973 -9.57467 -1.89779 255 255 255
-1.89053 -9.4784 -1.87871 255 255 255
-5.09548 -87.8382 7.69777 255 255 255
-0.546657 -12.421 -1.9692 255 255 255
-0.720027 -12.4122 -1.9692 255 255 255
-0.714307 -12.3136 -1.95355 255 255 255
-0.879767 -12.2434 -1.94417 255 255 255
-0.881466 -12.2671 -1.94792 255 255 255
-1.0486 -12.2063 -1.94041 255 255 255
-1.04995 -12.2221 -1.94292 255 255 255
-1.22307 -12.2536 -1.95042 255 255 255
-1.22503 -12.2733 -1.95355 255 255 255
-1.40961 -12.3529 -1.9692 255 255 255
-1.40961 -12.3529 -1.9692 255 255 255
-1.5798 -12.3322 -1.9692 255 255 255
-1.9519 -12.4788 -2.00048 255 255 255
-2.0972 -12.2949 -1.97545 255 255 255
-1.9133 -10.3434 -1.66603 255 255 255
-3.86471 -87.8129 10.7925 255 255 255
-3.86645 -87.8526 10.7974 255 255 255
-5.09706 -87.8653 10.8066 255 255 255
-5.10464 -87.9961 10.8227 255 255 255
-0.753146 -17.1128 -2.10322 255 255 255
-1.00074 -17.2512 -2.12175 255 255 255
-1.30946 -15.243 -1.87849 255 255 255
-1.5195 -15.2235 -1.87849 255 255 255
-1.98168 -17.366 -2.14612 255 255 255
-1.82213 -10.6823 -1.33057 0 255 0
-1.91694 -10.3631 -1.29401 0 255 0
-3.82694 -86.9549 13.7856 255 255 255
-3.83111 -87.0496 13.8006 255 255 255
-5.05255 -87.0981 13.8182 255 255 255
-5.05506 -87.1414 13.8251 255 255 255
-6.25946 -87.1108 13.8326 255 255 255
-1.11272 -25.2829 -2.2141 255 255 255
-1.6734 -14.6645 -1.2913 0 255 0
-1.6734 -14.6645 -1.2913 0 255 0
-3.86621 -87.8472 17.0923 255 255 255
-5.15059 -88.7881 17.2877 255 255 255
-5.15263 -88.8234 17.2945 255 255 255
-3.92973 -45.7445 -0.801414 0 255 0
-3.67546 -36.8234 -0.645948 255 255 255
-4.42289 -25.9295 -0.459138 255 255 255
-4.34152 -25.4524 -0.450691 255 255 255
-4.42877 -23.9421 -0.425001 255 255 255
-4.63667 -23.2465 -0.413762 255 255 255
-4.47865 -22.4542 -0.39966 255 255 255
0.125963 -1.02 -0.275383 255 255 255
0.122648 -0.993155 -0.268137 255 255 255
0.112969 -1.03318 -0.278489 255 255 255
0.113809 -1.04086 -0.28056 255 255 255
0.091541 -0.957697 -0.257784 255 255 255
0.0974231 -1.01924 -0.274348 255 255 255
0.0770535 -0.947343 -0.254678 255 255 255
0.0864503 -1.06287 -0.285736 255 255 255
0.0634643 -0.940605 -0.252607 255 255 255
0.0593027 -0.878926 -0.236043 255 255 255
0.0516 -0.968416 -0.259854 255 255 255
0.0464605 -0.87196 -0.233972 255 255 255
0.0415949 -1.05397 -0.28263 255 255 255
0.040833 -1.03467 -0.277454 255 255 255
0.0241847 -0.942433 -0.252607 255 255 255
0.0267618 -1.04286 -0.279525 255 255 255
0.011295 -0.96586 -0.258819 255 255 255
0.0121534 -1.03927 -0.278489 255 255 255
-0.00216059 -1.03161 -0.276419 255 255 255
-0.00203112 -0.969787 -0.259854 255 255 255
-0.0169051 -1.05272 -0.282113 255 255 255
-0.0162537 -1.01216 -0.271242 255 255 255
-0.0317757 -1.05818 -0.283666 255 255 255
-0.0314278 -1.04659 -0.28056 255 255 255
4.05717 -32.8534 0.577814 255 255 255
3.98583 -36.4532 0.640084 255 255 255
-1.39919 -87.1315 1.52108 255 255 255
0.0742799 -0.601489 -0.13992 255 255 255
0.0704584 -0.570544 -0.132721 255 255 255
0.0624855 -0.571472 -0.132721 255 255 255
0.0616382 -0.563724 -0.130922 255 255 255
0.0576669 -0.603308 -0.13992 255 255 255
0.0576669 -0.603308 -0.13992 255 255 255
0.0466047 -0.572986 -0.132721 255 255 255
0.0459727 -0.565217 -0.130922 255 255 255
0.0381753 -0.565797 -0.130922 255 255 255
0.0371259 -0.550242 -0.127322 255 255 255
0.0305878 -0.574064 -0.132721 255 255 255
0.030173 -0.56628 -0.130922 255 255 255
0.0226699 -0.574431 -0.132721 255 255 255
0.0217477 -0.551064 -0.127322 255 255 255
0.0143477 -0.559104 -0.129122 255 255 255
0.0145477 -0.566897 -0.130922 255 255 255
0.00663116 -0.567045 -0.130922 255 255 255
0.00681345 -0.582633 -0.134521 255 255 255
-0.00117137 -0.559287 -0.129122 255 255 255
-0.00115504 -0.551492 -0.127322 255 255 255
-0.0093556 -0.582598 -0.134521 255 255 255
-0.0093556 -0.582598 -0.134521 255 255 255
-0.0173136 -0.576567 -0.133171 255 255 255
-0.0182494 -0.607733 -0.140369 255 255 255
4.57412 -37.0394 1.9559 255 255 255
4.90703 -39.7352 2.09825 255 255 255
4.36045 -39.8793 2.10244 255 255 255
4.38216 -40.0778 2.11291 255 255 255
4.86771 -50.9257 2.68107 255 255 255
5.87049 -87.0065 4.57019 255 255 255
-1.40256 -87.3409 4.57793 255 255 255
-2.62944 -87.5643 4.59112 255 255 255
-2.62944 -87.5643 4.59112 255 255 255
1.22067 -9.8845 -1.93595 255 255 255
1.20864 -9.78708 -1.91687 255 255 255
0.928982 -9.71897 -1.89779 255 255 255
0.928982 -9.71897 -1.89779 255 255 255
0.783538 -9.63329 -1.87871 255 255 255
0.786721 -9.67242 -1.88634 255 255 255
0.650643 -9.64318 -1.87871 255 255 255
0.650643 -9.64318 -1.87871 255 255 255
0.514255 -9.65141 -1.87871 255 255 255
0.514255 -9.65141 -1.87871 255 255 255
0.381136 -9.65758 -1.87871 255 255 255
0.380361 -9.63797 -1.87489 255 255 255
0.247037 -9.62659 -1.87184 255 255 255
0.246937 -9.62267 -1.87107 255 255 255
0.112605 -9.6291 -1.87184 255 255 255
0.113018 -9.66444 -1.87871 255 255 255
-0.0202919 -9.68864 -1.88328 255 255 255
-0.0202425 -9.66508 -1.87871 255 255 255
-0.155186 -9.66386 -1.87871 255 255 255
-0.295992 -9.85698 -1.91687 255 255 255
-0.295992 -9.85698 -1.91687 255 255 255
9.531 -87.1675 7.67162 255 255 255
9.52667 -87.1279 7.66814 255 255 255
5.88769 -87.2615 7.65175 255 255 255
5.8775 -87.1104 7.6385 255 255 255
4.6497 -87.2644 7.64548 255 255 255
4.64694 -87.2127 7.64094 255 255 255
3.44404 -87.2685 7.64094 255 255 255
3.44608 -87.3202 7.64548 255 255 255
2.2367 -87.1603 7.62805 255 255 255
1.02187 -87.3822 7.64548 255 0 0
1.02122 -87.3264 7.6406 255 0 0
-0.183025 -87.388 7.64548 255 255 255
-0.183334 -87.5354 7.65838 255 255 255
-1.40633 -87.5761 7.66291 255 255 255
-1.40768 -87.6598 7.67023 255 255 255
-2.6335 -87.6993 7.67616 255 255 255
1.00793 -12.3921 -1.9692 255 255 255
0.836976 -12.4048 -1.9692 255 255 255
0.836976 -12.4048 -1.9692 255 255 255
0.661529 -12.4154 -1.9692 255 255 255
0.658796 -12.3641 -1.96106 255 255 255
0.487638 -12.3562 -1.95856 255 255 255
0.488573 -12.3799 -1.96231 255 255 255
0.317228 -12.3618 -1.95856 255 255 255
0.318241 -12.4013 -1.96482 255 255 255
0.145385 -12.4322 -1.9692 255 255 255
0.145385 -12.4322 -1.9692 255 255 255
9.53666 -87.2193 10.773 255 255 255
9.53752 -87.2272 10.774 255 255 255
8.34505 -87.3054 10.7686 255 255 255
8.34051 -87.258 10.7628 255 255 255
5.89473 -87.3658 10.7516 255 255 255
4.65992 -87.4562 10.7535 255 192 203
4.65865 -87.4324 10.7506 255 192 203
3.45131 -87.4527 10.7462 255 255 255
3.44975 -87.413 10.7413 255 255 255
2.23523 -87.103 10.6984 255 255 255
2.2391 -87.2538 10.7169 255 255 255
1.02333 -87.5068 10.7452 255 255 255
1.02411 -87.5743 10.7535 255 255 255
-0.183569 -87.6476 10.7618 255 0 0
-0.183719 -87.7191 10.7706 255 0 0
-1.40902 -87.7437 10.775 255 255 255
-2.63767 -87.8385 10.7901 255 255 255
2.1179 -17.15 -2.12175 255 255 255
2.1179 -17.15 -2.12175 255 255 255
0.919436 -17.2558 -2.12175 255 255 255
0.681432 -17.2668 -2.12175 255 255 255
0.681432 -17.2668 -2.12175 255 255 255
0.443299 -17.2745 -2.12175 255 255 255
10.6662 -86.3711 13.7838 255 255 255
10.6696 -86.3985 13.7881 255 255 255
9.46143 -86.5312 13.7869 255 255 255
9.45026 -86.4291 13.7706 255 255 255
8.27507 -86.5733 13.7744 255 255 255
8.27883 -86.6127 13.7806 255 255 255
7.04558 -86.6226 13.765 255 255 255
7.04558 -86.6226 13.765 255 255 255
5.85058 -86.7115 13.765 255 192 203
5.84394 -86.613 13.7493 255 192 203
4.61893 -86.6869 13.7493 255 255 255
4.6225 -86.754 13.76 255 255 255
3.42048 -86.6713 13.7381 255 255 255
3.42437 -86.77 13.7537 255 255 255
2.22951 -86.8801 13.765 255 255 255
2.22597 -86.7418 13.7431 255 255 255
1.01575 -86.8593 13.7581 255 255 255
1.01677 -86.9462 13.7719 255 255 255
-0.181955 -86.8769 13.76 255 255 255
-0.18212 -86.9559 13.7725 255 255 255
-1.39702 -86.9962 13.7806 255 0 0
-1.39702 -86.9962 13.7806 255 0 0
-2.61154 -86.9682 13.7806 255 255 255
-2.61451 -87.067 13.7963 255 255 255
10.8806 -88.1071 17.2564 255 255 255
9.63874 -88.1528 17.2373 255 255 255
9.63874 -88.1528 17.2373 255 255 255
8.36308 -87.4942 17.0847 255 255 255
8.35188 -87.3769 17.0618 255 255 255
7.11327 -87.4549 17.0557 255 192 203
7.11136 -87.4314 17.0511 255 192 203
5.90521 -87.5212 17.0511 255 255 255
5.90759 -87.5564 17.0579 255 255 255
4.66569 -87.5645 17.045 255 255 255
4.66694 -87.5881 17.0495 255 255 255
3.45778 -87.6166 17.0442 255 255 255
3.45887 -87.6441 17.0495 255 255 255
2.24983 -87.6717 17.0473 255 255 255
2.25094 -87.7149 17.0557 255 255 255
1.0257 -87.7102 17.0503 255 255 255
1.02649 -87.777 17.0633 255 255 255
-0.183852 -87.7828 17.0633 255 255 255
-0.183811 -87.7632 17.0595 255 255 255
-1.41023 -87.8188 17.0724 255 255 255
-1.40966 -87.7835 17.0656 255 255 255
-2.63647 -87.7984 17.074 255 0 0
-2.63812 -87.8533 17.0847 255 0 0
-0.587658 -36.5951 -1.91811 255 255 255
-0.561554 -34.9695 -1.83291 255 255 255
-1.04507 -34.8025 -1.82475 255 255 255
-1.04471 -34.7906 -1.82412 255 255 255
10.6363 -86.1285 -1.5148 255 255 255
10.625 -86.0372 -1.51319 255 255 255
4.95784 -45.3428 -0.796179 0 255 0
8.23538 -86.1581 -1.51075 255 255 255
5.83134 -86.4263 -1.51201 255 255 255
-1.39129 -86.6396 -1.5125 255 255 255
-2.60384 -86.7117 -1.51424 255 255 255
0.299335 -1.00538 -0.281077 255 255 255
0.302642 -1.01649 -0.284183 255 255 255
0.288599 -1.02057 -0.284183 255 255 255
0.283342 -1.00198 -0.279007 255 255 255
0.2735 -1.02072 -0.283148 255 255 255
0.2685 -1.00206 -0.277972 255 255 255
0.257326 -1.01694 -0.281077 255 255 255
0.256852 -1.01507 -0.28056 255 255 255
0.239521 -1.0054 -0.276936 255 255 255
0.245789 -1.03171 -0.284183 255 255 255
0.225636 -1.00861 -0.276936 255 255 255
0.230697 -1.03123 -0.283148 255 255 255
0.218831 -1.04566 -0.286254 255 255 255
0.209334 -1.00028 -0.273831 255 255 255
0.201994 -1.03724 -0.283148 255 255 255
0.198671 -1.02017 -0.278489 255 255 255
0.187674 -1.03992 -0.283148 255 255 255
0.188017 -1.04183 -0.283666 255 255 255
0.167473 -1.00618 -0.273313 255 255 255
0.175086 -1.05191 -0.285736 255 255 255
0.153057 -1.00847 -0.273313 255 255 255
0.157985 -1.04094 -0.282113 255 255 255
0.142646 -1.0373 -0.28056 255 255 255
0.135277 -0.983714 -0.266066 255 255 255
3.95611 -17.6841 0.316307 255 255 255
3.94913 -17.6529 0.315749 255 255 255
3.95768 -18.9114 0.33725 255 255 255
3.95768 -18.9114 0.33725 255 255 255
3.92183 -20.1386 0.358123 255 255 255
3.97764 -20.4251 0.363219 255 255 255
3.69281 -20.4623 0.36294 255 255 255
3.6921 -20.4583 0.36287 255 255 255
3.50287 -25.4724 0.448806 255 255 255
0.149149 -0.589429 -0.140369 255 255 255
0.140904 -0.591454 -0.140369 255 255 255
0.132736 -0.593341 -0.140369 255 255 255
0.124543 -0.595115 -0.140369 255 255 255
0.115849 -0.594883 -0.13992 255 255 255
0.107636 -0.596424 -0.13992 255 255 255
0.107636 -0.596424 -0.13992 255 255 255
0.0995068 -0.597834 -0.13992 255 255 255
0.0995068 -0.597834 -0.13992 255 255 255
0.0909409 -0.599196 -0.13992 255 255 255
0.0909409 -0.599196 -0.13992 255 255 255
0.0825659 -0.600408 -0.13992 255 255 255
0.0772562 -0.561796 -0.130922 255 255 255
3.72981 -20.6673 1.10063 255 255 255
4.33743 -24.0342 1.27993 255 255 255
2.4689 -8.29233 -1.68179 255 255 255
2.47842 -8.32432 -1.68828 255 255 255
2.3367 -8.26324 -1.6692 255 255 255
2.34418 -8.28969 -1.67454 255 255 255
2.24491 -8.37811 -1.68599 255 255 255
2.25659 -8.42173 -1.69477 255 255 255
2.1489 -8.49238 -1.70278 255 255 255
2.16528 -8.55709 -1.71575 255 255 255
2.0556 -8.62851 -1.72415 255 255 255
2.13204 -8.94935 -1.78826 255 255 255
2.07616 -9.28061 -1.84856 255 255 255
2.13574 -9.54692 -1.9016 255 255 255
1.99988 -9.55624 -1.89779 255 255 255
1.99466 -9.53126 -1.89283 255 255 255
1.86626 -9.58323 -1.89779 255 255 255
1.85651 -9.53313 -1.88786 255 255 255
1.72629 -9.56555 -1.88939 255 255 255
1.7235 -9.55009 -1.88634 255 255 255
1.58688 -9.53394 -1.87871 255 255 255
1.60622 -9.65014 -1.9016 255 255 255
1.47208 -9.69931 -1.90695 255 255 255
1.47974 -9.74977 -1.91687 255 255 255
1.35042 -9.82005 -1.92679 255 255 255
1.34346 -9.76949 -1.91687 255 255 255
4.00881 -20.5852 1.8348 255 255 255
3.72567 -20.6444 1.83533 255 255 255
3.71895 -20.6071 1.83201 255 255 255
2.61604 -8.78655 -1.45202 255 255 255
2.61323 -8.77708 -1.45046 255 255 255
2.65645 -9.39394 -1.5462 255 255 255
2.68601 -9.49848 -1.56341 255 255 255
2.6095 -9.73878 -1.59688 255 255 255
2.66727 -9.95439 -1.63224 255 255 255
2.56243 -10.1266 -1.65445 255 255 255
2.64578 -10.456 -1.70826 255 255 255
2.56087 -10.7494 -1.75019 255 255 255
2.54439 -10.6802 -1.73893 255 255 255
2.38655 -10.668 -1.73142 255 255 255
2.40293 -10.7413 -1.74331 255 255 255
2.27969 -10.8933 -1.7627 255 255 255
2.30802 -11.0286 -1.7846 255 255 255
2.16438 -11.1141 -1.79336 255 255 255
2.25501 -11.5794 -1.86845 255 255 255
2.18776 -12.1226 -1.95105 255 255 255
2.20986 -12.2451 -1.97076 255 255 255
2.04134 -12.2643 -1.9692 255 255 255
2.04004 -12.2565 -1.96795 255 255 255
1.86146 -12.2649 -1.96482 255 255 255
1.86561 -12.2923 -1.9692 255 255 255
1.6938 -12.3171 -1.9692 255 255 255
3.98464 -20.4611 2.5595 255 255 255
3.70215 -20.5141 2.5595 255 255 255
2.99824 -10.0702 -1.29011 255 0 0
4.09829 -13.765 -1.76345 255 255 255
2.78565 -9.85083 -1.25696 255 0 0
2.76836 -9.7897 -1.24916 255 0 0
2.65264 -9.8998 -1.25842 255 0 0
2.65008 -9.89022 -1.2572 255 0 0
2.78004 -10.9866 -1.3915 255 0 0
2.76592 -10.9308 -1.38444 255 0 0
2.61901 -10.9935 -1.3876 255 255 255
2.97693 -12.4958 -1.57723 255 0 0
2.76795 -12.373 -1.55676 255 255 255
2.8945 -12.9386 -1.62793 255 0 0
2.74958 -13.1386 -1.64816 255 255 255
2.95085 -14.1004 -1.76881 255 0 0
2.7537 -14.1402 -1.76881 255 255 255
2.84173 -14.5922 -1.82536 255 255 255
2.73475 -15.1536 -1.89068 255 255 255
2.73828 -15.1731 -1.89312 255 255 255
2.55363 -15.3421 -1.90969 255 255 255
2.56276 -15.397 -1.91652 255 255 255
2.35525 -15.5184 -1.92724 255 255 255
2.50895 -16.5311 -2.05301 255 255 255
2.35416 -17.1191 -2.12175 255 255 255
2.35091 -17.0955 -2.11882 255 255 255
3.06725 -10.302 -0.94041 0 255 0
3.09909 -10.409 -0.950172 0 255 0
3.03443 -10.7306 -0.975621 0 255 0
3.05504 -10.8035 -0.982245 0 255 0
2.73407 -10.2037 -0.9242 255 0 0
2.76347 -10.3134 -0.934135 255 0 0
2.6148 -10.3336 -0.932566 255 0 0
2.77707 -10.9749 -0.990438 255 0 0
2.62356 -11.0126 -0.990438 255 0 0
2.81564 -11.8188 -1.06295 255 0 0
4.07998 -18.2378 -1.63504 255 255 255
2.87232 -13.7251 -1.2268 255 0 0
2.84608 -14.6146 -1.30263 255 0 0
3.07269 -15.7782 -1.40635 255 0 0
3.0891 -17.1171 -1.52174 255 0 0
3.04095 -18.2699 -1.6204 255 0 0
3.12956 -20.6202 -1.82469 255 0 0
3.3197 -21.873 -1.93555 255 0 0
2.63306 -8.84369 -0.483584 255 0 0
2.70145 -9.07339 -0.496145 255 0 0
2.65326 -9.38268 -0.511008 255 0 0
2.73913 -9.68634 -0.527546 255 0 0
2.68803 -10.0319 -0.544294 255 0 0
2.76764 -10.329 -0.560413 255 0 0
2.70546 -10.6919 -0.577998 255 0 0
2.72408 -10.7655 -0.581976 255 0 0
2.62951 -11.0375 -0.594641 255 0 0
2.83548 -11.9021 -0.64122 255 0 0
2.76355 -12.3533 -0.663411 255 0 0
2.89436 -12.938 -0.694812 255 0 0
2.83843 -13.5632 -0.726214 255 0 0
2.97508 -14.2161 -0.761174 255 255 255
2.79462 -14.3504 -0.766198 255 0 0
2.93512 -15.0718 -0.804718 255 0 0
2.98214 -17.9166 -0.951886 255 0 0
3.25588 -21.4526 -1.13716 0 255 0
3.26607 -21.5197 -1.14071 0 255 0
3.15553 -10.5985 -0.193024 255 255 255
3.16124 -10.6177 -0.193373 255 255 255
3.02271 -10.6891 -0.193896 255 255 255
3.08311 -10.9027 -0.197771 255 255 255
2.96354 -11.0601 -0.199865 255 255 255
3.13227 -11.6898 -0.211244 255 255 255
3.07471 -12.1511 -0.218783 255 255 255
3.17821 -12.5602 -0.226148 255 255 255
3.10912 -13.0507 -0.234176 255 255 255
3.22683 -13.5448 -0.243042 255 255 255
3.16332 -14.1403 -0.25292 255 255 255
3.2873 -14.6945 -0.262833 255 255 255
3.21915 -15.3824 -0.274317 255 255 255
3.36538 -16.0811 -0.286778 255 255 255
3.535 -18.1522 -0.3228 255 255 255
3.53271 -18.1404 -0.32259 255 255 255
3.30108 -18.2917 -0.32444 255 255 255
3.80503 -21.0841 -0.37397 255 255 255
3.54393 -21.2918 -0.376763 255 255 255
3.62404 -21.7731 -0.385279 255 255 255
4.9666 -32.7242 -0.577744 255 255 255
4.0074 -29.1413 -0.51345 255 255 255
0.468794 -0.95566 -0.285219 255 255 255
0.467092 -0.952192 -0.284183 255 255 255
0.445487 -0.941159 -0.279007 255 255 255
0.458711 -0.969097 -0.287289 255 255 255
0.438887 -0.961271 -0.283148 255 255 255
0.444503 -0.973572 -0.286772 255 255 255
0.428704 -0.974304 -0.285219 255 255 255
0.420923 -0.956621 -0.280042 255 255 255
0.418072 -0.98731 -0.287289 255 255 255
0.412046 -0.973078 -0.283148 255 255 255
0.401505 -0.985824 -0.285219 255 255 255
0.405877 -0.996559 -0.288324 255 255 255
0.382072 -0.97694 -0.281077 255 255 255
0.387701 -0.991333 -0.285219 255 255 255
0.368566 -0.982115 -0.281077 255 255 255
0.373996 -0.996585 -0.285219 255 255 255
0.358913 -0.998011 -0.284183 255 255 255
0.356297 -0.990739 -0.282113 255 255 255
0.343687 -0.999271 -0.283148 255 255 255
0.339917 -0.98831 -0.280042 255 255 255
0.330907 -1.00764 -0.284183 255 255 255
0.332112 -1.01131 -0.285219 255 255 255
0.313343 -1.0011 -0.281077 255 255 255
0.317959 -1.01585 -0.285219 255 255 255
2.35267 -4.79605 -1.03838 0 255 0
2.83168 -5.77253 -1.2498 255 0 0
2.79281 -5.90023 -1.26888 255 0 0
2.83984 -5.9996 -1.29025 255 0 0
2.80985 -6.15427 -1.31506 255 0 0
2.85715 -6.25785 -1.33719 255 0 0
2.81962 -6.40806 -1.36085 255 0 0
2.66069 -6.04687 -1.28414 255 0 0
2.53313 -5.98219 -1.26277 0 255 0
3.02307 -7.13921 -1.50701 255 0 0
2.48892 -6.11109 -1.28262 0 255 0
2.48299 -6.09655 -1.27957 0 255 0
2.80808 -7.18012 -1.49861 255 0 0
2.90676 -7.43244 -1.55128 255 0 0
2.83643 -7.5582 -1.56921 255 0 0
2.79504 -7.44792 -1.54632 255 0 0
2.63827 -7.33611 -1.51541 255 255 255
2.6396 -7.3398 -1.51617 255 255 255
2.53111 -7.35923 -1.51273 255 255 255
2.52281 -7.3351 -1.50777 255 255 255
2.51693 -7.66432 -1.56807 255 255 255
2.52 -7.67364 -1.56998 255 255 255
2.45073 -7.82986 -1.59478 255 255 255
2.52286 -8.06032 -1.64172 255 255 255
2.96922 -6.05291 -1.06782 0 255 0
2.97009 -6.05469 -1.06813 0 255 0
2.89879 -6.12413 -1.07314 255 0 0
2.89118 -6.10806 -1.07032 255 0 0
2.80505 -6.14375 -1.0697 255 0 0
2.85428 -6.25157 -1.08847 255 0 0
2.81395 -6.3952 -1.10662 255 0 0
2.87124 -6.52538 -1.12914 255 0 0
2.83068 -6.68489 -1.14979 255 0 0
2.66739 -6.29925 -1.08347 255 0 0
2.5475 -6.25494 -1.0697 255 0 0
2.89919 -7.11844 -1.21737 255 0 0
2.49445 -6.3782 -1.08472 0 255 0
2.48438 -6.35245 -1.08034 0 255 0
2.73942 -7.29972 -1.23489 255 0 0
2.78453 -7.41993 -1.25523 255 0 0
2.6452 -7.35538 -1.23802 255 0 0
2.64453 -7.35352 -1.23771 255 0 0
2.53261 -7.36358 -1.23333 0 255 0
2.52426 -7.33929 -1.22926 0 255 0
3.23385 -9.8474 -1.64162 255 255 255
3.23878 -9.86242 -1.64413 255 255 255
2.77092 -8.85285 -1.46923 255 0 0
2.75322 -8.7963 -1.45985 255 0 0
3.47253 -7.07894 -0.96813 0 255 0
3.45855 -7.05042 -0.96423 0 255 0
3.35722 -7.09264 -0.963499 0 255 0
3.34958 -7.07649 -0.961305 0 255 0
3.24839 -7.11478 -0.96033 0 255 0
3.24345 -7.10395 -0.958868 0 255 0
3.1284 -7.10983 -0.953749 0 255 0
3.12041 -7.09166 -0.951312 0 255 0
3.02109 -7.13454 -0.951312 0 255 0
3.01644 -7.12357 -0.94985 0 255 0
2.9097 -7.14426 -0.947169 0 255 0
2.67833 -6.57618 -0.871853 255 0 0
2.55372 -6.52974 -0.860885 255 0 0
2.91668 -7.4578 -0.983242 0 255 0
2.49483 -6.64796 -0.871853 255 0 0
2.48995 -6.63495 -0.870147 255 0 0
2.64276 -7.34859 -0.958868 255 0 0
2.64612 -7.35793 -0.960087 255 0 0
2.53538 -7.37164 -0.957162 255 0 0
2.53473 -7.36976 -0.956918 255 0 0
2.94565 -8.96981 -1.15922 255 0 0
2.74127 -8.34743 -1.07879 255 0 0
2.58532 -8.25986 -1.0627 255 0 0
2.59895 -8.30343 -1.06831 255 0 0
2.45691 -5.00853 -0.488072 255 0 0
2.50254 -5.10155 -0.497136 255 0 0
2.46431 -5.20622 -0.503935 255 0 0
2.50181 -5.28546 -0.511604 255 0 0
2.47256 -5.41551 -0.520843 255 0 0
2.52469 -5.52969 -0.531824 255 0 0
2.48993 -5.65881 -0.540889 255 0 0
2.52765 -5.74452 -0.549081 255 0 0
2.49303 -5.8875 -0.559366 255 0 0
2.5412 -6.00125 -0.570173 255 0 0
2.51383 -6.17226 -0.583072 255 0 0
4.15214 -10.1948 -0.963071 0 255 0
3.9702 -10.1516 -0.953658 0 255 0
2.68865 -6.87475 -0.645824 255 0 0
2.57051 -6.84961 -0.640072 255 0 0
2.49875 -6.94814 -0.645998 255 0 0
2.5183 -7.00251 -0.651053 255 0 0
2.52785 -7.34975 -0.679989 255 0 0
2.53109 -7.35917 -0.680861 255 0 0
2.57107 -7.82916 -0.720952 255 0 0
2.59283 -7.89542 -0.727053 255 0 0
2.46924 -7.88902 -0.723218 255 0 0
3.20484 -10.2392 -0.938667 0 255 0
2.45588 -5.00643 -0.292244 255 0 0
2.52449 -5.14629 -0.300408 255 0 0
2.48315 -5.24603 -0.304177 255 0 0
2.51904 -5.32185 -0.308573 255 0 0
2.48192 -5.43601 -0.313178 255 0 0
2.52837 -5.53776 -0.31904 255 0 0
2.50487 -5.69275 -0.325948 255 0 0
2.53865 -5.76953 -0.330345 255 0 0
2.49835 -5.90005 -0.335788 255 0 0
2.55754 -6.03982 -0.343743 255 0 0
2.51168 -6.167 -0.348976 255 0 0
2.56593 -6.30018 -0.356513 255 0 0
2.53445 -6.48048 -0.364677 255 0 0
2.58538 -6.61068 -0.372004 255 0 0
2.54872 -6.79155 -0.380168 255 0 0
2.59082 -6.90375 -0.386449 255 0 0
2.55081 -7.09293 -0.395032 255 0 0
2.60286 -7.23764 -0.403092 255 0 0
2.51194 -7.3035 -0.404766 255 0 0
2.53273 -7.36393 -0.408116 255 0 0
2.47453 -7.5352 -0.415652 255 0 0
2.6621 -8.10637 -0.447158 255 0 0
2.60951 -8.33717 -0.457835 255 0 0
2.68826 -8.58877 -0.471652 255 0 0
2.30563 -4.70015 -0.0913808 255 0 0
2.35319 -4.7971 -0.0932657 255 0 0
2.3048 -4.86925 -0.0940336 255 0 0
2.36811 -5.003 -0.0966165 255 0 0
2.37199 -5.19525 -0.0996881 255 0 0
2.36779 -5.38121 -0.10262 255 0 0
2.39379 -5.65313 -0.107158 255 0 0
3.64013 -8.93769 -0.168451 255 255 255
3.56815 -9.12359 -0.170999 255 255 255
3.47504 -9.25991 -0.172639 255 255 255
3.70164 -10.293 -0.190929 255 255 255
3.56147 -10.355 -0.191139 255 255 255
3.58228 -10.4155 -0.192256 255 255 255
3.45273 -10.5139 -0.193163 255 255 255
3.45023 -10.5063 -0.193024 255 255 255
3.30201 -10.5496 -0.192954 255 255 255
3.30559 -10.5611 -0.193163 255 255 255
2.7173 -3.78291 -1.24803 255 0 0
2.74322 -3.819 -1.25993 255 0 0
2.70357 -3.87547 -1.26614 255 0 0
2.70246 -3.87389 -1.26563 255 0 0
2.52031 -3.72248 -1.20454 255 0 0
2.48132 -3.66489 -1.18591 0 255 0
2.45259 -3.73513 -1.1973 0 255 0
2.40381 -3.66084 -1.17349 0 255 0
2.3701 -3.72175 -1.18229 0 255 0
2.35869 -3.70383 -1.17659 0 255 0
2.31856 -3.75408 -1.18229 0 255 0
0.544111 -0.880992 -0.277454 255 255 255
0.553584 -0.924971 -0.288842 255 255 255
0.546639 -0.913367 -0.285219 255 255 255
0.543685 -0.937529 -0.290395 255 255 255
0.539809 -0.930845 -0.288324 255 255 255
0.507845 -0.9046 -0.277972 255 255 255
0.52676 -0.938291 -0.288324 255 255 255
0.504387 -0.928578 -0.283148 255 255 255
0.508075 -0.935368 -0.285219 255 255 255
0.492434 -0.937154 -0.283666 255 255 255
0.480753 -0.914923 -0.276936 255 255 255
0.483675 -0.952551 -0.286254 255 255 255
0.474928 -0.935326 -0.281077 255 255 255
3.58362 -5.45762 0.113964 255 255 255
3.50922 -5.51049 0.114034 255 255 255
3.50277 -5.50037 0.113825 255 255 255
3.44447 -5.57707 0.114418 255 255 255
0.374533 -0.52141 -0.124789 255 255 255
0.414955 -0.612886 -0.14387 255 255 255
0.35237 -0.536637 -0.124789 255 255 255
0.344843 -0.541504 -0.124789 255 255 255
2.36141 -3.82345 -0.873524 255 255 255
2.39855 -3.88358 -0.887262 255 0 0
2.94902 -4.92745 -1.11623 0 255 0
2.8808 -4.96765 -1.11623 255 0 0
2.8808 -4.96765 -1.11623 255 0 0
2.76311 -4.92179 -1.09715 255 0 0
2.80347 -4.99369 -1.11318 255 0 0
2.76065 -5.08237 -1.12425 255 0 0
2.60041 -4.78737 -1.05899 255 0 0
2.43188 -4.62812 -1.01625 0 255 0
2.4611 -4.68373 -1.02846 255 0 0
2.43991 -4.80516 -1.04754 0 255 0
2.42213 -4.77015 -1.03991 0 255 0
2.5077 -3.49111 -0.680803 255 0 0
2.66097 -3.70449 -0.722414 255 0 0
2.62546 -3.76351 -0.726795 255 0 0
2.72266 -3.90284 -0.753701 255 0 0
2.51507 -3.71475 -0.710525 255 0 0
2.48074 -3.66404 -0.700826 255 0 0
2.4558 -3.74002 -0.708648 255 0 0
2.4146 -3.67727 -0.696759 255 0 0
2.37363 -3.72729 -0.699888 255 0 0
2.36727 -3.71729 -0.698011 255 0 0
2.30748 -3.73613 -0.695508 255 0 0
2.34485 -3.79664 -0.706771 255 0 0
3.43489 -5.73927 -1.05937 0 255 0
3.44706 -5.75961 -1.06313 0 255 0
3.35642 -5.7878 -1.05969 0 255 0
3.35245 -5.78096 -1.05844 0 255 0
2.56066 -4.56117 -0.828477 255 0 0
2.45332 -4.36997 -0.793748 255 0 0
2.41281 -4.44199 -0.800632 255 0 0
2.43921 -4.49059 -0.809392 255 0 0
2.3642 -4.49932 -0.805012 255 0 0
3.12592 -5.94896 -1.06438 0 255 0
3.04792 -6.00259 -1.06626 0 255 0
3.06223 -6.03077 -1.07126 0 255 0
2.37758 -3.30998 -0.500396 255 0 0
2.38337 -3.31804 -0.501614 255 0 0
2.32831 -3.33756 -0.499664 255 0 0
2.34081 -3.35547 -0.502345 255 0 0
2.51854 -3.71987 -0.551581 255 0 0
2.47625 -3.6574 -0.542319 255 0 0
2.45045 -3.73187 -0.548168 255 0 0
2.40686 -3.66549 -0.538419 255 0 0
2.37784 -3.7339 -0.543537 255 0 0
2.36825 -3.71883 -0.541344 255 0 0
2.30006 -3.72411 -0.537444 255 0 0
2.32613 -3.76633 -0.543537 255 0 0
2.75551 -4.60412 -0.658826 255 255 255
2.43643 -4.07098 -0.582535 255 0 0
2.41293 -4.16085 -0.590579 255 0 0
2.4448 -4.2158 -0.598378 255 0 0
2.38861 -4.25472 -0.59911 255 0 0
2.37501 -4.23049 -0.595697 255 0 0
3.96059 -7.29146 -1.01883 0 255 0
3.94069 -7.25483 -1.01371 0 255 0
3.82459 -7.27859 -1.00957 0 255 0
3.82644 -7.28211 -1.01005 0 255 0
3.5752 -7.04101 -0.969593 0 255 0
2.39795 -3.33833 -0.359605 255 0 0
2.41189 -3.35774 -0.361696 255 0 0
2.38133 -3.41356 -0.364137 255 0 0
2.40641 -3.4495 -0.367972 255 0 0
2.37812 -3.51246 -0.371109 255 0 0
2.37141 -3.50256 -0.370063 255 0 0
2.32166 -3.53574 -0.370063 255 0 0
2.40149 -3.65732 -0.382788 255 0 0
2.37481 -3.72914 -0.386797 255 0 0
2.3716 -3.7241 -0.386274 255 0 0
2.31375 -3.74627 -0.385228 255 0 0
2.32526 -3.76492 -0.387146 255 0 0
2.40241 -4.01414 -0.409283 255 0 0
2.40753 -4.02269 -0.410155 255 0 0
2.33484 -4.0262 -0.407192 255 0 0
2.38482 -4.11238 -0.415907 255 0 0
2.43056 -4.32943 -0.434384 255 0 0
2.46469 -4.39024 -0.440485 255 0 0
2.43359 -4.48025 -0.446063 255 0 0
2.47733 -4.56078 -0.454081 255 0 0
2.44758 -4.658 -0.460357 255 0 0
2.47538 -4.71091 -0.465586 255 0 0
2.44545 -4.81607 -0.472558 255 0 0
2.48604 -4.89602 -0.480402 255 0 0
2.37934 -3.31242 -0.21374 255 0 0
2.39682 -3.33675 -0.21531 255 0 0
2.37801 -3.40879 -0.217822 255 0 0
2.40658 -3.44975 -0.220439 255 0 0
2.37049 -3.5012 -0.22159 255 0 0
2.4108 -3.56074 -0.225359 255 0 0
2.38105 -3.62619 -0.227347 255 0 0
2.42052 -3.68629 -0.231116 255 0 0
2.37525 -3.72983 -0.231744 255 0 0
2.36667 -3.71636 -0.230906 255 0 0
2.30891 -3.73844 -0.230278 255 0 0
2.34144 -3.79112 -0.233523 255 0 0
2.40726 -4.02224 -0.245665 255 0 0
2.42777 -4.05651 -0.247758 255 0 0
2.38564 -4.11379 -0.249224 255 0 0
2.44175 -4.21054 -0.255085 255 0 0
2.42574 -4.32085 -0.259691 255 0 0
2.44725 -4.35917 -0.261994 255 0 0
2.42619 -4.46663 -0.26639 255 0 0
2.46623 -4.54034 -0.270786 255 0 0
2.45356 -4.66938 -0.276439 255 0 0
2.47957 -4.71889 -0.279369 255 0 0
2.46408 -4.85278 -0.285231 255 0 0
2.49302 -4.90976 -0.28858 255 0 0
2.23058 -3.10532 -0.066738 255 0 0
2.25858 -3.1443 -0.0675757 255 0 0
2.23675 -3.20631 -0.0682389 255 0 0
2.25277 -3.22927 -0.0687276 255 0 0
2.23661 -3.30346 -0.0696351 255 0 0
2.26239 -3.34154 -0.0704379 255 0 0
2.24566 -3.41999 -0.0714152 255 0 0
2.26432 -3.44841 -0.0720086 255 0 0
2.24173 -3.52017 -0.0728463 255 0 0
2.27825 -3.57752 -0.0740331 255 0 0
2.25393 -3.64942 -0.0748708 255 0 0
2.27074 -3.67665 -0.0754293 255 0 0
2.25821 -3.77319 -0.0767557 255 0 0
2.28902 -3.82467 -0.0778028 255 0 0
2.27519 -3.92333 -0.0791641 255 0 0
2.29626 -3.95966 -0.0798971 255 0 0
2.26914 -4.0419 -0.0809094 255 0 0
2.29753 -4.09247 -0.0819216 255 0 0
2.26307 -4.16632 -0.0827593 255 0 0
2.31366 -4.25945 -0.0846093 255 0 0
2.28075 -4.34051 -0.0855866 255 0 0
2.31424 -4.40424 -0.0868432 255 0 0
2.29869 -4.52706 -0.0886233 255 0 0
2.31861 -4.56628 -0.0893912 255 0 0
0.755137 -0.884465 -0.311618 255 255 255
2.71424 -3.27048 -1.1388 255 0 0
2.69136 -3.33663 -1.14864 255 0 0
2.71804 -3.36971 -1.16003 255 0 0
2.69694 -3.44078 -1.17141 255 0 0
2.72316 -3.47423 -1.1828 255 0 0
2.66971 -3.50576 -1.18073 255 0 0
2.67907 -3.51806 -1.18487 255 0 0
2.65497 -3.58929 -1.19626 255 0 0
2.73079 -3.6918 -1.23043 255 0 0
3.46006 -4.28963 0.0961977 255 255 255
3.46633 -4.29741 0.0963722 255 255 255
3.4134 -4.35483 0.0965816 255 255 255
3.4134 -4.35483 0.0965816 255 255 255
3.39103 -4.45297 0.0976986 255 255 255
2.71211 -3.46012 -1.01498 255 0 0
2.66825 -3.50385 -1.01678 255 0 0
2.66943 -3.5054 -1.01723 255 0 0
2.65963 -3.5956 -1.03253 255 0 0
2.90763 -3.93088 -1.1288 0 255 0
2.68511 -2.65899 -0.598518 255 255 255
2.69072 -2.66455 -0.59977 255 255 255
2.6671 -2.71596 -0.602898 255 0 0
2.68232 -2.73146 -0.60634 255 255 255
2.65347 -2.77864 -0.60853 255 0 0
2.69031 -2.81722 -0.616978 255 255 255
2.67491 -2.88056 -0.622609 255 0 0
2.69104 -2.89793 -0.626364 255 255 255
2.67811 -2.96601 -0.632934 255 0 0
2.6993 -2.98947 -0.63794 255 255 255
2.68596 -3.05952 -0.644823 255 0 0
2.69509 -3.06991 -0.647013 255 0 0
2.68072 -3.13983 -0.653896 255 0 0
2.70766 -3.17138 -0.660466 255 255 255
2.68961 -3.2408 -0.667037 255 0 0
2.71358 -3.26968 -0.672981 255 255 255
2.70115 -3.34876 -0.681429 255 0 0
2.47047 -3.06278 -0.623235 255 0 0
2.40431 -3.06743 -0.61729 255 0 0
2.43843 -3.11097 -0.626051 255 0 0
2.68558 -3.5266 -0.702078 255 0 0
2.64728 -3.47631 -0.692066 255 0 0
2.34357 -3.16831 -0.624174 255 0 0
2.34122 -3.16513 -0.623548 255 0 0
2.34004 -2.31728 -0.404362 255 0 0
2.3612 -2.33824 -0.408019 255 0 0
2.34223 -2.38514 -0.410456 255 0 0
2.37283 -2.4163 -0.415818 255 0 0
2.35257 -2.46355 -0.418256 255 0 0
2.37725 -2.48939 -0.422643 255 0 0
2.36117 -2.54271 -0.426055 255 0 0
2.37603 -2.55871 -0.428736 255 0 0
2.3587 -2.61226 -0.432149 255 0 0
2.372 -2.62699 -0.434586 255 0 0
2.35736 -2.68521 -0.43873 255 0 0
2.3901 -2.72251 -0.444823 255 0 0
2.37554 -2.78238 -0.44921 255 0 0
2.40132 -2.81257 -0.454085 255 0 0
2.36942 -2.85499 -0.455548 255 0 0
2.38463 -2.87332 -0.458472 255 0 0
2.37918 -2.9496 -0.465297 255 0 0
2.4041 -2.9805 -0.470172 255 0 0
2.38797 -3.04659 -0.47529 255 0 0
2.39409 -3.0544 -0.476509 255 0 0
2.38008 -3.12543 -0.482359 255 0 0
2.40052 -3.15228 -0.486502 255 0 0
2.39523 -3.23815 -0.494546 255 0 0
2.41766 -3.26848 -0.499177 255 0 0
2.34015 -2.31739 -0.288137 255 0 0
2.34865 -2.3258 -0.289183 255 0 0
2.33688 -2.37969 -0.291797 255 0 0
2.37039 -2.41381 -0.295981 255 0 0
2.35985 -2.47116 -0.298944 255 0 0
2.37361 -2.48557 -0.300687 255 0 0
2.35223 -2.53307 -0.30243 255 0 0
2.37663 -2.55935 -0.305568 255 0 0
2.35669 -2.61003 -0.30766 255 0 0
2.38339 -2.63961 -0.311146 255 0 0
2.35814 -2.6861 -0.312715 255 0 0
2.37917 -2.71006 -0.315504 255 0 0
2.36486 -2.76988 -0.318641 255 0 0
2.39332 -2.80321 -0.322476 255 0 0
2.37558 -2.86242 -0.32544 255 0 0
2.39594 -2.88695 -0.328229 255 0 0
2.37041 -2.93873 -0.33032 255 0 0
2.39293 -2.96665 -0.333458 255 0 0
2.38077 -3.0374 -0.337641 255 0 0
2.41027 -3.07504 -0.341825 255 0 0
2.38159 -3.12741 -0.343917 255 0 0
2.39124 -3.14009 -0.345311 255 0 0
2.38271 -3.22123 -0.35054 255 0 0
2.41826 -3.26928 -0.35577 255 0 0
2.31749 -2.29495 -0.170929 255 0 0
2.35013 -2.32727 -0.173337 255 0 0
2.3272 -2.36983 -0.174069 255 0 0
2.35239 -2.39548 -0.175953 255 0 0
2.31872 -2.42809 -0.175953 255 0 0
2.33665 -2.44687 -0.177314 255 0 0
2.33216 -2.51146 -0.179617 255 0 0
2.33487 -2.51438 -0.179826 255 0 0
2.32899 -2.57935 -0.182129 255 0 0
2.34371 -2.59566 -0.183281 255 0 0
2.32964 -2.65364 -0.18506 255 0 0
2.35599 -2.68366 -0.187153 255 0 0
2.31099 -2.70678 -0.186525 255 0 0
2.3473 -2.74931 -0.189456 255 0 0
2.34185 -2.82177 -0.192178 255 0 0
2.37119 -2.85712 -0.194585 255 0 0
2.33859 -2.89928 -0.195213 255 0 0
2.39 -2.96301 -0.199505 255 0 0
2.36318 -3.01496 -0.200761 255 0 0
2.38536 -3.04325 -0.202645 255 0 0
2.37289 -3.11599 -0.205262 255 0 0
2.37894 -3.12393 -0.205785 255 0 0
2.3826 -3.22107 -0.209972 255 0 0
2.3921 -3.23392 -0.210809 255 0 0
2.19101 -2.1697 -0.0538232 255 0 0
2.20522 -2.18377 -0.0541723 255 0 0
2.20254 -2.24289 -0.0548704 255 0 0
2.21935 -2.26001 -0.0552892 255 0 0
2.20001 -2.30379 -0.0556034 255 0 0
2.21382 -2.31825 -0.0559524 255 0 0
2.19485 -2.36359 -0.0563015 255 0 0
2.22614 -2.39729 -0.0571043 255 0 0
2.21792 -2.45634 -0.0577675 255 0 0
2.24472 -2.48602 -0.0584656 255 0 0
2.20847 -2.51562 -0.0584307 255 0 0
2.23222 -2.54267 -0.0590589 255 0 0
2.20863 -2.58689 -0.0593731 255 0 0
2.23201 -2.61427 -0.0600014 255 0 0
2.21317 -2.66672 -0.06049 255 0 0
2.23232 -2.6898 -0.0610136 255 0 0
2.21213 -2.7425 -0.0615023 255 0 0
2.24728 -2.78608 -0.0624796 255 0 0
2.22296 -2.83607 -0.0628985 255 0 0
2.2427 -2.86125 -0.063457 255 0 0
2.22071 -2.91615 -0.0639805 255 0 0
2.25221 -2.95751 -0.064888 255 0 0
2.22853 -3.01279 -0.0654116 255 0 0
2.24875 -3.04012 -0.066005 255 0 0
4.19061 -2.95068 -1.37329 255 255 255
4.15902 -2.92843 -1.36294 0 255 0
3.38028 -2.45321 -1.11913 0 255 0
3.38809 -2.45888 -1.12172 0 255 0
3.37045 -2.51867 -1.12742 0 255 0
3.36272 -2.51289 -1.12483 0 255 0
3.31352 -2.54899 -1.12017 0 255 0
3.32424 -2.55724 -1.12379 0 255 0
3.30033 -2.613 -1.12793 0 255 0
3.27761 -2.59501 -1.12017 0 255 0
3.24601 -2.64361 -1.12172 0 255 0
3.24751 -2.64483 -1.12224 0 255 0
3.21074 -2.68936 -1.12224 0 255 0
0.768125 -0.739699 -0.285736 255 255 255
3.43834 -2.96057 0.079199 255 255 255
3.47622 -2.99319 0.0800716 255 255 255
3.445 -3.05325 0.0803509 255 255 255
3.40011 -3.01346 0.0793037 255 255 255
3.36267 -3.06409 0.0794085 255 255 255
3.39814 -3.09641 0.0802462 255 255 255
3.40037 -3.18535 0.0813282 255 255 255
3.42664 -3.20996 0.0819565 255 255 255
3.37341 -3.24858 0.0817471 255 255 255
2.64342 -1.86128 -0.746388 255 0 0
2.65776 -1.87137 -0.750437 255 0 0
2.62755 -1.90693 -0.749537 255 0 0
2.64175 -1.91723 -0.753586 255 0 0
2.63658 -1.97026 -0.759885 255 0 0
2.64126 -1.97376 -0.761234 255 0 0
5.02146 -3.86286 -1.46263 255 255 255
5.01219 -3.85573 -1.45993 255 255 255
4.96245 -3.92896 -1.46128 255 255 255
4.97009 -3.93501 -1.46353 255 255 255
4.92745 -4.01301 -1.46713 255 255 255
4.92443 -4.01055 -1.46623 255 255 255
4.87315 -4.08181 -1.46758 255 255 255
4.87912 -4.08682 -1.46938 255 255 255
4.2796 -3.68493 -1.30382 0 255 0
4.28846 -3.69256 -1.30652 0 255 0
4.20017 -3.72254 -1.29572 0 255 0
4.171 -3.69669 -1.28672 0 255 0
2.63422 -1.85479 -0.626235 255 0 0
2.6615 -1.87401 -0.632723 255 0 0
2.64871 -1.92228 -0.636157 255 0 0
2.66619 -1.93497 -0.640355 255 0 0
2.64521 -1.97671 -0.641881 255 0 0
2.66408 -1.99081 -0.646461 255 0 0
2.64536 -2.03499 -0.648751 255 0 0
2.67026 -2.05415 -0.654856 255 0 0
2.64747 -2.0961 -0.656383 255 0 0
2.65979 -2.10585 -0.659436 255 0 0
2.64877 -2.1572 -0.664015 255 0 0
2.67008 -2.17456 -0.669358 255 0 0
2.64737 -2.21747 -0.671266 255 0 0
2.66543 -2.2326 -0.675845 255 0 0
2.63776 -2.27124 -0.676609 255 0 0
2.65562 -2.28661 -0.681188 255 0 0
2.6667 -2.36345 -0.692637 255 0 0
2.72253 -2.41293 -0.707138 255 255 255
2.36783 -1.66723 -0.458666 255 0 0
2.34683 -1.65244 -0.454599 255 0 0
2.32774 -1.68934 -0.455537 255 0 0
2.53717 -1.84133 -0.496523 255 0 0
2.60141 -1.94398 -0.514356 255 0 0
2.64413 -1.97591 -0.522804 255 255 255
2.63038 -2.02347 -0.52562 255 0 0
2.6523 -2.04033 -0.53 255 255 255
2.64214 -2.09188 -0.533754 255 255 255
2.66847 -2.11273 -0.539073 255 255 255
2.6544 -2.16179 -0.542202 255 255 255
2.6544 -2.16179 -0.542202 255 255 255
2.63191 -2.20453 -0.543766 255 0 0
2.66523 -2.23243 -0.550649 255 255 255
2.71542 -2.33811 -0.567544 255 255 255
2.69147 -2.31749 -0.562538 255 255 255
2.69494 -2.59521 -0.592574 255 255 255
2.32916 -1.64 -0.349765 255 0 0
2.32753 -1.63885 -0.349521 255 0 0
2.31991 -1.68366 -0.351959 255 0 0
2.31669 -1.68132 -0.351471 255 0 0
2.3089 -1.72539 -0.353909 255 0 0
2.33116 -1.74203 -0.357321 255 0 0
2.31919 -1.78409 -0.359271 255 0 0
2.32549 -1.78893 -0.360246 255 0 0
2.31585 -1.83354 -0.362683 255 0 0
2.32207 -1.83847 -0.363658 255 0 0
2.31805 -1.88786 -0.36707 255 0 0
2.33652 -1.90291 -0.369995 255 0 0
2.32224 -1.94514 -0.371945 255 0 0
2.33137 -1.95279 -0.373408 255 0 0
2.31961 -1.9973 -0.375845 255 0 0
2.34067 -2.01543 -0.379257 255 0 0
2.32942 -2.06452 -0.382182 255 0 0
2.33536 -2.06979 -0.383157 255 0 0
2.31981 -2.11382 -0.385351 255 0 0
2.33154 -2.12452 -0.387301 255 0 0
2.32811 -2.18089 -0.391688 255 0 0
2.35418 -2.20532 -0.396075 255 0 0
2.34214 -2.25547 -0.399244 255 0 0
2.34643 -2.2596 -0.399975 255 0 0
2.32143 -1.63456 -0.248394 255 0 0
2.32143 -1.63456 -0.248394 255 0 0
2.31554 -1.68048 -0.250311 255 0 0
2.3365 -1.6957 -0.252577 255 0 0
2.32057 -1.73412 -0.253449 255 0 0
2.31898 -1.73292 -0.253275 255 0 0
2.31509 -1.78093 -0.255541 255 0 0
2.32298 -1.787 -0.256412 255 0 0
2.32592 -1.84152 -0.25955 255 0 0
2.33998 -1.85265 -0.261119 255 0 0
2.31576 -1.886 -0.261293 255 0 0
2.3343 -1.9011 -0.263385 255 0 0
2.32314 -1.94589 -0.265128 255 0 0
2.33536 -1.95613 -0.266522 255 0 0
2.32814 -2.00464 -0.268788 255 0 0
2.33267 -2.00854 -0.269311 255 0 0
2.32009 -2.05625 -0.271229 255 0 0
2.34096 -2.07475 -0.273669 255 0 0
2.32686 -2.12025 -0.275412 255 0 0
2.34453 -2.13635 -0.277504 255 0 0
2.32358 -2.17665 -0.27855 255 0 0
2.33812 -2.19027 -0.280293 255 0 0
2.33066 -2.24441 -0.283082 255 0 0
2.35793 -2.27067 -0.286394 255 0 0
2.30261 -1.6213 -0.147587 255 0 0
2.3173 -1.63165 -0.148529 255 0 0
2.29372 -1.66465 -0.148529 255 0 0
2.29533 -1.66582 -0.148634 255 0 0
2.29745 -1.71684 -0.150309 255 0 0
2.32945 -1.74075 -0.152402 255 0 0
2.31125 -1.77797 -0.152821 255 0 0
2.30966 -1.77675 -0.152716 255 0 0
2.31438 -1.83238 -0.154705 255 0 0
2.33004 -1.84478 -0.155752 255 0 0
2.30903 -1.88052 -0.156066 255 0 0
2.32142 -1.89061 -0.156903 255 0 0
2.31197 -1.93654 -0.158055 255 0 0
2.32116 -1.94424 -0.158683 255 0 0
2.30507 -1.98478 -0.159415 255 0 0
2.3308 -2.00693 -0.161195 255 0 0
2.31081 -2.04803 -0.161823 255 0 0
2.33174 -2.06658 -0.163288 255 0 0
2.31779 -2.11198 -0.164335 255 0 0
2.33402 -2.12678 -0.165486 255 0 0
2.31468 -2.16832 -0.166219 255 0 0
2.32926 -2.18197 -0.167266 255 0 0
2.30902 -2.22358 -0.167998 255 0 0
2.3306 -2.24436 -0.169568 255 0 0
2.18279 -1.53694 -0.0465979 255 0 0
2.19423 -1.54499 -0.0468423 255 0 0
2.18808 -1.58798 -0.0471913 255 0 0
2.19779 -1.59503 -0.0474007 255 0 0
2.1737 -1.62436 -0.0473658 255 0 0
2.18492 -1.63274 -0.0476102 255 0 0
2.18251 -1.67894 -0.0480639 255 0 0
2.19361 -1.68748 -0.0483083 255 0 0
2.18238 -1.72787 -0.0485875 255 0 0
2.18238 -1.72787 -0.0485875 255 0 0
2.17075 -1.7679 -0.0488667 255 0 0
2.19866 -1.79063 -0.049495 255 0 0
2.19062 -1.8349 -0.049879 255 0 0
2.20595 -1.84774 -0.050228 255 0 0
2.19726 -1.89195 -0.050612 255 0 0
2.19726 -1.89195 -0.050612 255 0 0
2.18493 -1.93646 -0.050961 255 0 0
2.21336 -1.96166 -0.0516242 255 0 0
2.19645 -2.00142 -0.0518686 255 0 0
2.19202 -1.99738 -0.0517638 255 0 0
2.192 -2.05339 -0.052427 255 0 0
2.21097 -2.07116 -0.0528808 255 0 0
2.18797 -2.107 -0.0530204 255 0 0
2.20957 -2.1278 -0.053544 255 0 0
4.77847 -2.29049 -1.41988 255 255 255
4.78544 -2.29383 -1.42195 255 255 255
4.7499 -2.35787 -1.42092 255 255 255
4.75336 -2.35959 -1.42195 255 255 255
4.71652 -2.42396 -1.42092 255 255 255
4.71652 -2.42396 -1.42092 255 255 255
4.68903 -2.4932 -1.42299 255 255 255
4.69245 -2.49502 -1.42402 255 255 255
4.66437 -2.5632 -1.42609 255 255 255
4.66437 -2.5632 -1.42609 255 255 255
4.63149 -2.62998 -1.42713 255 255 255
4.63821 -2.6338 -1.4292 255 255 255
4.60812 -2.70141 -1.43127 255 255 255
4.60145 -2.6975 -1.4292 255 255 255
4.56334 -2.76148 -1.4292 255 255 255
3.6758 -2.22439 -1.15123 0 255 0
3.63743 -2.27204 -1.14916 0 255 0
3.65709 -2.28432 -1.15537 0 255 0
3.63012 -2.33766 -1.15692 0 255 0
3.62038 -2.33138 -1.15382 0 255 0
3.58628 -2.38001 -1.1533 0 255 0
4.28003 -2.84042 -1.3764 255 255 255
4.24315 -2.90208 -1.37743 255 255 255
4.24952 -2.90644 -1.37951 255 255 255
3.32821 -1.76964 0.0657956 255 255 255
3.33527 -1.77339 0.0659352 255 255 255
3.44895 -1.89529 0.0686927 255 255 255
3.43954 -1.95314 0.0690417 255 255 255
3.35955 -1.90771 0.0674361 255 255 255
3.43535 -2.07888 0.0700889 255 255 255
3.31912 -2.07321 0.0683087 255 255 255
2.61309 -1.25254 -0.669004 255 0 0
2.60255 -1.24749 -0.666305 255 0 0
2.60255 -1.29192 -0.670804 255 0 0
2.6235 -1.30232 -0.676203 255 0 0
2.61546 -1.34416 -0.678902 255 0 0
2.61893 -1.34595 -0.679802 255 0 0
2.60332 -1.38421 -0.680702 255 0 0
2.61709 -1.39153 -0.684301 255 0 0
2.62327 -1.44156 -0.69105 255 0 0
2.63181 -1.44625 -0.693299 255 0 0
2.61814 -1.4867 -0.695099 255 0 0
2.61475 -1.48478 -0.694199 255 0 0
2.61756 -1.53449 -0.700498 255 0 0
2.63101 -1.54237 -0.704097 255 0 0
2.61589 -1.58299 -0.705896 255 0 0
2.6359 -1.5951 -0.711295 255 0 0
2.61804 -1.6353 -0.712645 255 0 0
2.62631 -1.64046 -0.714894 255 0 0
2.6231 -1.68918 -0.720293 255 0 0
2.63621 -1.69762 -0.723893 255 0 0
2.63204 -1.74673 -0.729291 255 0 0
2.64015 -1.75212 -0.731541 255 0 0
2.63956 -1.80532 -0.738289 255 0 0
2.65082 -1.81302 -0.741439 255 0 0
3.31377 -1.88172 0.199714 255 255 255
3.28751 -1.92723 0.199714 255 255 255
3.32542 -1.94945 0.202017 255 255 255
2.62901 -1.26018 -0.566703 255 0 0
2.63609 -1.26357 -0.568229 255 255 255
2.62194 -1.30154 -0.568992 255 0 0
2.62546 -1.30329 -0.569756 255 0 0
2.62446 -1.34879 -0.573572 255 0 0
2.63669 -1.35507 -0.576243 255 0 0
2.63658 -1.40189 -0.580441 255 0 0
2.63658 -1.40189 -0.580441 255 0 0
2.62044 -1.44 -0.581204 255 0 0
2.63076 -1.44568 -0.583494 255 0 0
2.63764 -1.49778 -0.5896 255 0 0
2.64447 -1.50166 -0.591126 255 0 0
2.63367 -1.54393 -0.593416 255 0 0
2.63198 -1.54294 -0.593034 255 0 0
2.63202 -1.59275 -0.597995 255 0 0
2.64041 -1.59783 -0.599903 255 0 0
2.64254 -1.6506 -0.605628 255 0 0
2.64087 -1.64956 -0.605246 255 0 0
2.62118 -1.68794 -0.606009 255 0 0
2.63934 -1.69963 -0.610207 255 0 0
2.63365 -1.7478 -0.614405 255 0 0
2.64837 -1.75757 -0.61784 255 0 0
2.63329 -1.80103 -0.620129 255 0 0
2.65274 -1.81433 -0.624709 255 0 0
2.30323 -1.10402 -0.40454 255 0 0
2.31214 -1.10829 -0.406104 255 0 0
2.31256 -1.14797 -0.40892 255 0 0
2.31787 -1.1506 -0.409858 255 0 0
2.31388 -1.18917 -0.412048 255 0 0
2.31037 -1.18737 -0.411423 255 0 0
2.311 -1.22878 -0.414551 255 0 0
2.32147 -1.23435 -0.416429 255 0 0
2.31289 -1.27099 -0.417993 255 0 0
2.32674 -1.2786 -0.420496 255 0 0
2.30866 -1.31097 -0.420496 255 0 0
2.3224 -1.31877 -0.422999 255 0 0
2.3074 -1.35266 -0.423625 255 0 0
2.32785 -1.36465 -0.427379 255 0 0
2.31533 -1.40111 -0.42863 255 0 0
2.3204 -1.40418 -0.429569 255 0 0
2.30535 -1.43998 -0.430508 255 0 0
2.32545 -1.45254 -0.434262 255 0 0
2.32015 -1.49409 -0.437078 255 0 0
2.3351 -1.50371 -0.439894 255 0 0
2.32073 -1.54014 -0.441145 255 0 0
2.33554 -1.54997 -0.443961 255 0 0
2.33161 -1.59469 -0.447403 255 0 0
2.34954 -1.60696 -0.450844 255 0 0
2.31098 -1.10773 -0.314667 255 0 0
2.31456 -1.10945 -0.315154 255 0 0
2.29727 -1.14037 -0.31491 255 0 0
2.31505 -1.1492 -0.317348 255 0 0
2.30937 -1.18686 -0.31881 255 0 0
2.33232 -1.19865 -0.321979 255 0 0
2.30835 -1.22737 -0.321004 255 0 0
2.31361 -1.23017 -0.321735 255 0 0
2.31034 -1.2696 -0.323685 255 0 0
2.32252 -1.27629 -0.325391 255 0 0
2.32864 -1.32232 -0.328803 255 0 0
2.32864 -1.32232 -0.328803 255 0 0
2.31361 -1.3563 -0.329291 255 0 0
2.32731 -1.36434 -0.331241 255 0 0
2.31483 -1.40081 -0.332216 255 0 0
2.32163 -1.40492 -0.333191 255 0 0
2.31163 -1.44391 -0.334653 255 0 0
2.32174 -1.45022 -0.336116 255 0 0
2.31487 -1.49069 -0.338066 255 0 0
2.32822 -1.49929 -0.340015 255 0 0
2.32718 -1.54442 -0.34294 255 0 0
2.34041 -1.5532 -0.34489 255 0 0
2.31686 -1.5846 -0.344647 255 0 0
2.33816 -1.59917 -0.347815 255 0 0
2.3087 -1.10664 -0.22399 255 0 0
2.32666 -1.11525 -0.225733 255 0 0
2.32177 -1.15254 -0.226779 255 0 0
2.33248 -1.15785 -0.227825 255 0 0
2.31609 -1.19031 -0.227825 255 0 0
2.32495 -1.19486 -0.228697 255 0 0
2.32387 -1.23562 -0.230265 255 0 0
2.33618 -1.24217 -0.231486 255 0 0
2.31709 -1.2733 -0.231311 255 0 0
2.32233 -1.27618 -0.231834 255 0 0
2.31641 -1.31537 -0.233054 255 0 0
