 0.00000000e+00 0.00000000e+00 0.00000000e+00
 3.62656986e+00 -7.37174845e-01 -7.19349913e-01
 8.73839804e+00 -1.77625896e+00 -1.73330891e+00
 8.71625077e+00 -1.90045001e+00 -1.73407215e+00
 8.74885999e+00 -1.90755997e+00 -1.74055966e+00
 8.71946132e+00 -2.02908221e+00 -1.74017804e+00
 8.73284646e+00 -2.03219703e+00 -1.74284936e+00
 8.72114973e+00 -2.15665108e+00 -1.74628393e+00
 8.74592572e+00 -2.16277793e+00 -1.75124496e+00
 8.74336230e+00 -2.29214720e+00 -1.75696923e+00
 8.75855494e+00 -2.29613008e+00 -1.76002217e+00
 8.19459304e+00 -8.49719918e-01 7.20777993e-01
 8.19062952e+00 -8.49308929e-01 7.20429370e-01
 4.90925908e+00 -5.77574067e-01 4.32466796e-01
 4.77866210e+00 -5.62209340e-01 4.20962237e-01
 9.36862655e+00 -1.23673019e+00 8.26759376e-01
 9.40023060e+00 -1.24090216e+00 8.29548359e-01
 9.38617087e+00 -1.37096735e+00 8.29896982e-01
 9.39011381e+00 -1.37154326e+00 8.30245605e-01
 9.39562311e+00 -1.50661696e+00 8.32511655e-01
 9.40349214e+00 -1.50787878e+00 8.33208901e-01
 0.00000000e+00 0.00000000e+00 0.00000000e+00
 3.62710910e+00 -6.33031876e-01 3.22127625e-01
 3.60812830e+00 -6.81762921e-01 3.21256068e-01
 0.00000000e+00 0.00000000e+00 0.00000000e+00
 9.41476640e+00 -1.91374473e+00 8.40529983e-01
 0.00000000e+00 0.00000000e+00 0.00000000e+00
 3.61883210e+00 -7.89032998e-01 3.24045052e-01
 9.42570468e+00 -2.05513598e+00 8.44016213e-01
 9.45042683e+00 -2.19918321e+00 8.48896934e-01
 9.46401060e+00 -2.20234426e+00 8.50117115e-01
 9.41727279e+00 -2.32879519e+00 8.48722623e-01
 9.45788950e+00 -2.33883929e+00 8.52383164e-01
 9.44165764e+00 -2.47521130e+00 8.53951967e-01
 9.47249384e+00 -2.48329527e+00 8.56740951e-01
 5.06143235e+00 -5.24833858e-01 -8.05950364e-01
 4.89442080e+00 -5.07515971e-01 -7.79356505e-01
 9.34034827e+00 -1.09889147e+00 -1.48956898e+00
 9.35211934e+00 -1.10027634e+00 -1.49144619e+00
 9.36892311e+00 -1.23676933e+00 -1.49676496e+00
 9.37283989e+00 -1.23728638e+00 -1.49739070e+00
 9.35879894e+00 -1.36696934e+00 -1.49801644e+00
 9.37443603e+00 -1.36925333e+00 -1.50051939e+00
 9.36025586e+00 -1.50094571e+00 -1.50145800e+00
 3.68441828e+00 -5.90807762e-01 -5.91009409e-01
 3.62338123e+00 -6.32381258e-01 -5.82561948e-01
 9.38148276e+00 -1.63733085e+00 -1.50834111e+00
 9.37129480e+00 -1.77072453e+00 -1.51053119e+00
 0.00000000e+00 0.00000000e+00 0.00000000e+00
 3.63347617e+00 -7.38578695e-01 -5.87254982e-01
 3.62960459e+00 -7.37791717e-01 -5.86629244e-01
 9.39154079e+00 -2.04768704e+00 -1.52242021e+00
 9.41277116e+00 -2.05231601e+00 -1.52586177e+00
 9.40436249e+00 -2.18846371e+00 -1.52930333e+00
 9.42167822e+00 -2.19249320e+00 -1.53211915e+00
 9.41356465e+00 -2.32787821e+00 -1.53587358e+00
 9.43274078e+00 -2.33262027e+00 -1.53900227e+00
 9.41645010e+00 -2.46860293e+00 -1.54181809e+00
 9.45275541e+00 -2.47812067e+00 -1.54776260e+00
 5.40224721e+00 -5.60173889e-01 6.66869047e-01
 5.19689863e+00 -5.38880730e-01 6.41520224e-01
 4.90902245e+00 -5.77546229e-01 6.06909330e-01
 4.84199162e+00 -5.69660055e-01 5.98622215e-01
 4.60122842e+00 -6.07397258e-01 5.69861050e-01
 4.44969096e+00 -5.87393157e-01 5.51093171e-01
 4.30563596e+00 -6.28891846e-01 5.34275201e-01
 4.15438872e+00 -6.06800298e-01 5.15507323e-01
 3.99850755e+00 -6.41172939e-01 4.97226921e-01
 3.90638507e+00 -6.26400818e-01 4.85771203e-01
 3.76048985e+00 -6.56310542e-01 4.68709495e-01
 3.63924680e+00 -6.35150244e-01 4.53597696e-01
 3.61051821e+00 -6.82214498e-01 4.51160309e-01
 8.05198227e+00 -1.52143784e+00 1.00615330e+00
 8.02051327e+00 -1.63033413e+00 1.00493461e+00
 3.62022197e+00 -7.35884506e-01 4.53597696e-01
 3.63661059e+00 -7.92909338e-01 4.57010038e-01
 7.95981327e+00 -1.73551996e+00 1.00030357e+00
 3.63678596e+00 -8.46306604e-01 4.58472470e-01
 3.65031999e+00 -8.49456070e-01 4.60178641e-01
 3.64404213e+00 -9.01134327e-01 4.60909857e-01
 3.64982326e+00 -9.02563943e-01 4.61641073e-01
 7.82482991e+00 -2.05134608e+00 9.93235149e-01
 7.79794706e+00 -2.04429851e+00 9.89822807e-01
 5.07250478e+00 -5.25981989e-01 -6.26164686e-01
 4.91454433e+00 -5.09602635e-01 -6.06665591e-01
 4.70398697e+00 -5.53423816e-01 -5.81560507e-01
 9.36065807e+00 -1.10128092e+00 -1.15727128e+00
 9.33431411e+00 -1.23220068e+00 -1.15605259e+00
 9.37367449e+00 -1.23739655e+00 -1.16092737e+00
 9.37732942e+00 -1.36967594e+00 -1.16360849e+00
 9.36357967e+00 -1.36766762e+00 -1.16190232e+00
 9.36121180e+00 -1.50109900e+00 -1.16409597e+00
 3.72802028e+00 -5.97799476e-01 -4.63590982e-01
 3.62946914e+00 -6.33443768e-01 -4.52379003e-01
 9.39242472e+00 -1.63924053e+00 -1.17067691e+00
 9.38422643e+00 -1.77316799e+00 -1.17262682e+00
 0.00000000e+00 0.00000000e+00 0.00000000e+00
 3.63772976e+00 -7.39443324e-01 -4.55791344e-01
 3.63383914e+00 -7.38652476e-01 -4.55303867e-01
 9.39700177e+00 -2.04887773e+00 -1.18091394e+00
 9.41833656e+00 -2.05352946e+00 -1.18359506e+00
 9.41388136e+00 -2.19067882e+00 -1.18676367e+00
 9.43321569e+00 -2.19517805e+00 -1.18920105e+00
 9.40590673e+00 -2.32598448e+00 -1.18968853e+00
 9.44252058e+00 -2.33503871e+00 -1.19431957e+00
 9.43204038e+00 -2.47269005e+00 -1.19724443e+00
 9.44164140e+00 -2.47520704e+00 -1.19846312e+00
 5.43868197e+00 -5.63951910e-01 8.66021198e-01
 5.20486580e+00 -5.39706867e-01 8.28789796e-01
 4.89872918e+00 -5.76335226e-01 7.81233718e-01
 4.85753042e+00 -5.71488194e-01 7.74663471e-01
 4.63746027e+00 -6.12180139e-01 7.40873626e-01
 4.45141351e+00 -5.87620547e-01 7.11151078e-01
 4.31388247e+00 -6.30096350e-01 6.90501729e-01
 4.15360229e+00 -6.06685430e-01 6.64846476e-01
 6.57109856e+00 -1.05369579e+00 1.05405543e+00
 3.91067160e+00 -6.27088175e-01 6.27302205e-01
 3.79073396e+00 -6.61588985e-01 6.09468676e-01
 3.62143527e+00 -6.32041633e-01 5.82249079e-01
 3.62584480e+00 -6.85110487e-01 5.84439161e-01
 6.47333640e+00 -1.22314961e+00 1.04341788e+00
 6.44811355e+00 -1.31071158e+00 1.04216641e+00
 3.63541196e+00 -7.38972184e-01 5.87567851e-01
 3.61302186e+00 -7.87766162e-01 5.85690637e-01
 6.40191961e+00 -1.39584421e+00 1.03778624e+00
 6.37603464e+00 -1.48374974e+00 1.03684763e+00
 6.36064288e+00 -1.48016796e+00 1.03434468e+00
 6.31853647e+00 -1.56250941e+00 1.03090312e+00
 6.33004215e+00 -1.56535465e+00 1.03278034e+00
 6.30183694e+00 -1.65208045e+00 1.03184173e+00
 6.28272888e+00 -1.64707111e+00 1.02871304e+00
 5.11295044e+00 -5.30175910e-01 -4.49723633e-01
 4.90882877e+00 -5.09009973e-01 -4.31769550e-01
 9.35153502e+00 -1.10020759e+00 -8.23796080e-01
 9.35153502e+00 -1.10020759e+00 -8.23796080e-01
 4.38901290e+00 -5.79383191e-01 -3.87320121e-01
 9.35282452e+00 -1.23464420e+00 -8.25364884e-01
 9.34674146e+00 -1.36520819e+00 -8.26410753e-01
 9.37434204e+00 -1.36923960e+00 -8.28851114e-01
 9.37201602e+00 -1.50283149e+00 -8.30419917e-01
 3.75352783e+00 -6.01889690e-01 -3.32586314e-01
 3.62122094e+00 -6.32004227e-01 -3.21604691e-01
 3.62514638e+00 -6.32689326e-01 -3.21953314e-01
 9.37369415e+00 -1.77117790e+00 -8.34603393e-01
 0.00000000e+00 0.00000000e+00 0.00000000e+00
 3.63938710e+00 -7.39780211e-01 -3.24916609e-01
 3.62767233e+00 -7.37398945e-01 -3.23870740e-01
 9.39650485e+00 -2.04876938e+00 -8.41401540e-01
 9.41597141e+00 -2.05301378e+00 -8.43144655e-01
 9.41937820e+00 -2.19195797e+00 -8.46107951e-01
 9.41355658e+00 -2.19060324e+00 -8.45585016e-01
 9.41533866e+00 -2.32831690e+00 -8.48548311e-01
 9.44435060e+00 -2.33549125e+00 -8.51162984e-01
 9.42045776e+00 -2.46965357e+00 -8.52034541e-01
 9.45900300e+00 -2.47975853e+00 -8.55520771e-01
 5.52833175e+00 -5.73247942e-01 1.08036053e+00
 0.00000000e+00 0.00000000e+00 0.00000000e+00
 4.88621536e+00 -5.74862975e-01 9.56334685e-01
 4.87061691e+00 -5.73027818e-01 9.53281741e-01
 4.65376800e+00 -6.14332884e-01 9.12448616e-01
 4.48638028e+00 -5.92236428e-01 8.79629469e-01
 4.31072112e+00 -6.29634596e-01 8.46810321e-01
 4.15919509e+00 -6.07502330e-01 8.17044118e-01
 4.04175216e+00 -6.48107345e-01 7.95673511e-01
 3.90799633e+00 -6.26659188e-01 7.69341869e-01
 3.80421771e+00 -6.63942275e-01 7.50642588e-01
 3.62241981e+00 -6.32213463e-01 7.14770497e-01
 3.62288523e+00 -6.84551270e-01 7.16678587e-01
 5.35909220e+00 -1.01261098e+00 1.06013478e+00
 5.35616472e+00 -1.08875054e+00 1.06242449e+00
 0.00000000e+00 0.00000000e+00 0.00000000e+00
 3.61194987e+00 -7.87532430e-01 7.18586677e-01
 3.61578625e+00 -7.88368896e-01 7.19349913e-01
 5.30433897e+00 -1.23435835e+00 1.05860831e+00
 5.30625113e+00 -1.23480332e+00 1.05898992e+00
 5.28681585e+00 -1.30737546e+00 1.05860831e+00
 5.26966324e+00 -1.30313379e+00 1.05517374e+00
 5.22436787e+00 -1.36961272e+00 1.04983109e+00
 5.24715683e+00 -1.37558704e+00 1.05441051e+00
 5.15723291e+00 -5.34767682e-01 -2.71728285e-01
 4.91486680e+00 -5.09636073e-01 -2.58958311e-01
 4.76058813e+00 -5.60082939e-01 -2.51212590e-01
 4.56619745e+00 -5.37212885e-01 -2.40954743e-01
 4.40766058e+00 -5.81844826e-01 -2.32999677e-01
 9.36776378e+00 -1.23661629e+00 -4.95202818e-01
 9.37749133e+00 -1.36969959e+00 -4.96668225e-01
 9.37749133e+00 -1.36969959e+00 -4.96668225e-01
 9.37125772e+00 -1.50270989e+00 -4.97400928e-01
 3.79622709e+00 -6.08736647e-01 -2.01493432e-01
 3.61629907e+00 -6.31145223e-01 -1.92386975e-01
 3.63203922e+00 -6.33892319e-01 -1.93224350e-01
 9.40052981e+00 -1.77624855e+00 -5.01378461e-01
 9.39660475e+00 -1.77550690e+00 -5.01169117e-01
 3.62675270e+00 -7.37212010e-01 -1.93957054e-01
 3.63653886e+00 -7.39201249e-01 -1.94480413e-01
 9.41166555e+00 -2.05207495e+00 -5.04832634e-01
 9.42532544e+00 -2.05505329e+00 -5.05565337e-01
 9.41905706e+00 -2.19188324e+00 -5.06821400e-01
 3.63573268e+00 -8.46061498e-01 -1.95631804e-01
 9.43059562e+00 -2.33208979e+00 -5.09124182e-01
 3.65474357e+00 -9.03780686e-01 -1.97306555e-01
 9.43189082e+00 -2.47265084e+00 -5.11008277e-01
 9.45893843e+00 -2.47974161e+00 -5.12473684e-01
 4.70436879e+00 -4.87808954e-01 1.09191242e+00
 4.70436879e+00 -4.87808954e-01 1.09191242e+00
 4.68171274e+00 -5.50803253e-01 1.08831320e+00
 4.67397117e+00 -5.49892458e-01 1.08651359e+00
 4.66186649e+00 -6.15401946e-01 1.08561379e+00
 4.65413857e+00 -6.14381802e-01 1.08381418e+00
 4.35983992e+00 -6.36809009e-01 1.01722867e+00
 4.15158573e+00 -6.06390888e-01 9.68639240e-01
 4.05612736e+00 -6.50412452e-01 9.48393645e-01
 3.95799524e+00 -6.34676667e-01 9.25448638e-01
 3.81832721e+00 -6.66404778e-01 8.94855294e-01
 3.64363250e+00 -6.35915670e-01 8.53914202e-01
 3.61716485e+00 -6.83470394e-01 8.49865083e-01
 4.58225277e+00 -8.65825650e-01 1.07661575e+00
 4.56987950e+00 -9.28921912e-01 1.07661575e+00
 4.56033107e+00 -9.26980997e-01 1.07436624e+00
 3.61951905e+00 -7.89182780e-01 8.55263909e-01
 3.62903909e+00 -7.91258484e-01 8.57513419e-01
 4.51540398e+00 -1.05076742e+00 1.07031712e+00
 3.63282186e+00 -8.45384130e-01 8.61112636e-01
 3.64541350e+00 -9.01473454e-01 8.66961363e-01
 3.65108877e+00 -9.02876890e-01 8.68311070e-01
 3.64378187e+00 -9.55248579e-01 8.69660776e-01
 4.46565920e+00 -1.17071075e+00 1.06581810e+00
 9.33054332e+00 -9.67509730e-01 -1.63738477e-01
 4.91887308e+00 -5.10051495e-01 -8.63196022e-02
 4.82796119e+00 -5.68009375e-01 -8.48536001e-02
 4.59361342e+00 -5.40438373e-01 -8.07348322e-02
 9.35540093e+00 -1.23498430e+00 -1.64715812e-01
 9.37720839e+00 -1.23786305e+00 -1.65099765e-01
 9.37112200e+00 -1.36876927e+00 -1.65309194e-01
 9.38893030e+00 -1.37137040e+00 -1.65623337e-01
 9.38466355e+00 -1.50485956e+00 -1.65902576e-01
 3.79295996e+00 -6.08212753e-01 -6.70521455e-02
 3.62268027e+00 -6.32258920e-01 -6.41899509e-02
 3.61283067e+00 -6.30539891e-01 -6.40154268e-02
 9.39627747e+00 -1.77544506e+00 -1.66914815e-01
 9.42378644e+00 -1.78064293e+00 -1.67403483e-01
 0.00000000e+00 0.00000000e+00 0.00000000e+00
 3.62529786e+00 -7.36916285e-01 -6.45739038e-02
 9.40751585e+00 -2.05117017e+00 -1.68066674e-01
 9.44268414e+00 -2.05883809e+00 -1.68694961e-01
 9.42470376e+00 -2.19319727e+00 -1.68904390e-01
 9.43638970e+00 -2.19591667e+00 -1.69113818e-01
 9.42851082e+00 -2.33157424e+00 -1.69532676e-01
 9.44404059e+00 -2.33541459e+00 -1.69811915e-01
 9.45887077e+00 -2.47972387e+00 -1.70684535e-01
 9.46080510e+00 -2.48023097e+00 -1.70719440e-01
 4.09097749e+00 -4.24204722e-01 1.10205149e+00
 4.08521285e+00 -4.23606970e-01 1.10049858e+00
 4.08282122e+00 -4.80343698e-01 1.10153386e+00
 4.08282122e+00 -4.80343698e-01 1.10153386e+00
 4.08328370e+00 -5.39024604e-01 1.10360441e+00
 4.06413134e+00 -5.36496346e-01 1.09842803e+00
 4.05252486e+00 -5.91921811e-01 1.09739275e+00
 4.05634799e+00 -5.92480228e-01 1.09842803e+00
 4.05149525e+00 -6.49669679e-01 1.09946330e+00
 4.04386531e+00 -6.48446196e-01 1.09739275e+00
 3.99647867e+00 -6.97497185e-01 1.08703999e+00
 3.61205548e+00 -6.30404598e-01 9.82477095e-01
 3.61998593e+00 -6.84003442e-01 9.87135838e-01
 3.96736790e+00 -7.49641948e-01 1.08186361e+00
 4.00398339e+00 -8.13891899e-01 1.09480456e+00
 3.98694516e+00 -8.10428529e-01 1.09014582e+00
 3.61080110e+00 -7.87281958e-01 9.90241667e-01
 3.62967617e+00 -7.91397389e-01 9.95418047e-01
 3.63144377e+00 -8.45063436e-01 9.99041514e-01
 3.63332535e+00 -8.45501293e-01 9.99559152e-01
 3.62132249e+00 -8.95515994e-01 9.99559152e-01
 3.63257466e+00 -8.98298540e-01 1.00266498e+00
 3.71311353e+00 -9.73424468e-01 1.02854689e+00
 3.88690294e+00 -1.01898485e+00 1.07668723e+00
 0.00000000e+00 0.00000000e+00 0.00000000e+00
 0.00000000e+00 0.00000000e+00 0.00000000e+00
 0.00000000e+00 0.00000000e+00 0.00000000e+00
 0.00000000e+00 0.00000000e+00 0.00000000e+00
 0.00000000e+00 0.00000000e+00 0.00000000e+00
 0.00000000e+00 0.00000000e+00 0.00000000e+00
 0.00000000e+00 0.00000000e+00 0.00000000e+00
 0.00000000e+00 0.00000000e+00 0.00000000e+00
 0.00000000e+00 0.00000000e+00 0.00000000e+00
 0.00000000e+00 0.00000000e+00 0.00000000e+00
 0.00000000e+00 0.00000000e+00 0.00000000e+00
 0.00000000e+00 0.00000000e+00 0.00000000e+00
 0.00000000e+00 0.00000000e+00 0.00000000e+00
 6.37580212e+00 -1.25761282e-01 -1.70872334e+00
 6.33867113e+00 -2.13598009e-01 -1.69940585e+00
 6.30584828e+00 -2.12491958e-01 -1.69060600e+00
 6.29840744e+00 -3.00330610e-01 -1.68957073e+00
 6.26753289e+00 -2.98858401e-01 -1.68128852e+00
 6.21454459e+00 -3.83364035e-01 -1.66834756e+00
 6.16633993e+00 -3.80390377e-01 -1.65540661e+00
 5.83680306e+00 -4.41944969e-01 -1.56844341e+00
 5.63646394e+00 -4.26775900e-01 -1.51460905e+00
 5.37413284e+00 -4.81519505e-01 -1.44576319e+00
 5.18556677e+00 -4.64624084e-01 -1.39503465e+00
 9.26165787e+00 5.92431944e-01 1.61993237e-01
 0.00000000e+00 0.00000000e+00 0.00000000e+00
 8.41821755e+00 4.20556605e-01 1.47123786e-01
 8.37028464e+00 4.18161977e-01 1.46286071e-01
 8.33533913e+00 2.99816170e-01 1.45587974e-01
 8.21943175e+00 2.95647065e-01 1.43563495e-01
 8.17877577e+00 1.79889673e-01 1.42795589e-01
 8.17877577e+00 1.79889673e-01 1.42795589e-01
 0.00000000e+00 0.00000000e+00 0.00000000e+00
 0.00000000e+00 0.00000000e+00 0.00000000e+00
 8.28059281e+00 -4.91386037e-02 1.44540830e-01
 8.16661218e+00 -4.84622211e-02 1.42551256e-01
 8.16716704e+00 -1.61095557e-01 1.42586161e-01
 8.17916288e+00 -1.61332172e-01 1.42795589e-01
 8.18410730e+00 -2.75784780e-01 1.42935209e-01
 8.18810442e+00 -2.75919474e-01 1.43005018e-01
 8.01766749e+00 -3.82311082e-01 1.40107919e-01
 7.48435478e+00 -3.56880823e-01 1.30788334e-01
 7.05750721e+00 -4.35364878e-01 1.23423418e-01
 6.69624907e+00 -4.13079515e-01 1.17105647e-01
 8.18731364e+00 -6.19918479e-01 1.43319162e-01
 6.14347621e+00 -4.65165327e-01 1.07541728e-01
 5.81382062e+00 -5.20915302e-01 1.01887149e-01
 5.57083121e+00 -4.99143577e-01 9.76287616e-02
 0.00000000e+00 0.00000000e+00 0.00000000e+00
 0.00000000e+00 0.00000000e+00 0.00000000e+00
 0.00000000e+00 0.00000000e+00 0.00000000e+00
 0.00000000e+00 0.00000000e+00 0.00000000e+00
 0.00000000e+00 0.00000000e+00 0.00000000e+00
 0.00000000e+00 0.00000000e+00 0.00000000e+00
 0.00000000e+00 0.00000000e+00 0.00000000e+00
 0.00000000e+00 0.00000000e+00 0.00000000e+00
 0.00000000e+00 0.00000000e+00 0.00000000e+00
 0.00000000e+00 0.00000000e+00 0.00000000e+00
 0.00000000e+00 0.00000000e+00 0.00000000e+00
 0.00000000e+00 0.00000000e+00 0.00000000e+00
 7.35896004e+00 -1.45153853e-01 -1.69928026e+00
 7.29271577e+00 -1.43847200e-01 -1.68398359e+00
 7.31142046e+00 -2.46377328e-01 -1.68893252e+00
 7.31921100e+00 -2.46639850e-01 -1.69073212e+00
 7.30337475e+00 -3.48251048e-01 -1.68803271e+00
 6.76613290e+00 -3.22633433e-01 -1.56385973e+00
 6.50227801e+00 -4.01113791e-01 -1.50402275e+00
 6.19496125e+00 -3.82155975e-01 -1.43293822e+00
 5.88977226e+00 -4.45955636e-01 -1.36365329e+00
 5.58275015e+00 -4.22708856e-01 -1.29256876e+00
 5.35123942e+00 -4.79468267e-01 -1.24038011e+00
 5.16102489e+00 -4.62425144e-01 -1.19628971e+00
 8.10628549e+00 5.18527302e-01 4.25700668e-01
 8.11824460e+00 5.19292280e-01 4.26328700e-01
 8.12071417e+00 4.05693957e-01 4.26119356e-01
 8.10276123e+00 4.04797065e-01 4.25177309e-01
 8.11959907e+00 2.92056155e-01 4.25805340e-01
 8.13756278e+00 2.92702297e-01 4.26747387e-01
 8.11489824e+00 1.78484706e-01 4.25386652e-01
 8.11489824e+00 1.78484706e-01 4.25386652e-01
 8.12857092e+00 6.66805489e-02 4.26014684e-01
 8.14055407e+00 6.67788494e-02 4.26642715e-01
 8.15466520e+00 -4.83913254e-02 4.27375419e-01
 8.15466520e+00 -4.83913254e-02 4.27375419e-01
 8.14922912e+00 -1.60741736e-01 4.27166075e-01
 8.15322286e+00 -1.60820511e-01 4.27375419e-01
 8.16615172e+00 -2.75179720e-01 4.28212794e-01
 8.17014397e+00 -2.75314250e-01 4.28422138e-01
 0.00000000e+00 0.00000000e+00 0.00000000e+00
 7.47124626e+00 -3.56255762e-01 3.91996312e-01
 7.07681730e+00 -4.36556082e-01 3.71585289e-01
 6.70204501e+00 -4.13437056e-01 3.51906970e-01
 6.41281795e+00 -4.85559064e-01 3.37043558e-01
 6.17183939e+00 -4.67312900e-01 3.24378257e-01
 8.17200314e+00 -7.32207228e-01 4.29992216e-01
 8.18791746e+00 -7.33633143e-01 4.30829592e-01
 0.00000000e+00 0.00000000e+00 0.00000000e+00
 0.00000000e+00 0.00000000e+00 0.00000000e+00
 0.00000000e+00 0.00000000e+00 0.00000000e+00
 0.00000000e+00 0.00000000e+00 0.00000000e+00
 0.00000000e+00 0.00000000e+00 0.00000000e+00
 7.02587036e+00 2.52715518e-01 -1.36657402e+00
 7.08170902e+00 1.55760025e-01 -1.37687771e+00
 8.50864983e+00 1.87145152e-01 -1.65431399e+00
 8.51042134e+00 6.98129563e-02 -1.65431399e+00
 8.53005322e+00 6.99740012e-02 -1.65813017e+00
 8.54393257e+00 -5.07013116e-02 -1.66080150e+00
 8.54982223e+00 -5.07362620e-02 -1.66194635e+00
 8.55812436e+00 -1.68807103e-01 -1.66385444e+00
 8.55812436e+00 -1.68807103e-01 -1.66385444e+00
 8.01926884e+00 -2.70230119e-01 -1.55967273e+00
 7.60525716e+00 -2.56278919e-01 -1.47915133e+00
 7.23814777e+00 -3.45140792e-01 -1.40855200e+00
 6.85182560e+00 -3.26719568e-01 -1.33337326e+00
 6.52523316e+00 -4.02529853e-01 -1.27078791e+00
 6.18819409e+00 -3.81738521e-01 -1.20514961e+00
 5.92972405e+00 -4.48980663e-01 -1.15592089e+00
 5.63411879e+00 -4.26598332e-01 -1.09829658e+00
 5.40673888e+00 -4.84440990e-01 -1.05517374e+00
 5.18968715e+00 -4.64993268e-01 -1.01281415e+00
 8.09646255e+00 5.17898967e-01 7.09796369e-01
 0.00000000e+00 0.00000000e+00 0.00000000e+00
 8.12280341e+00 4.05798331e-01 7.11539484e-01
 8.12877314e+00 4.06096566e-01 7.12062418e-01
 8.12369526e+00 2.92203492e-01 7.11190861e-01
 8.11971306e+00 2.92060255e-01 7.10842238e-01
 8.13295892e+00 1.78881945e-01 7.11713795e-01
 8.14092655e+00 1.79057191e-01 7.12411041e-01
 8.14262150e+00 6.67958090e-02 7.12411041e-01
 0.00000000e+00 0.00000000e+00 0.00000000e+00
 8.15669857e+00 -4.84033919e-02 7.13631222e-01
 8.17064505e+00 -4.84861529e-02 7.14851402e-01
 8.18911991e+00 -1.61528572e-01 7.16594517e-01
 8.18712790e+00 -1.61489281e-01 7.16420205e-01
 8.17411882e+00 -2.75448192e-01 7.15548648e-01
 8.18407511e+00 -2.75783696e-01 7.16420205e-01
 8.02419682e+00 -3.82622424e-01 7.02823910e-01
 7.51472401e+00 -3.58328937e-01 6.58200169e-01
 7.18086793e+00 -4.42974777e-01 6.29438774e-01
 6.76524860e+00 -4.17335971e-01 5.93007674e-01
 6.44287652e+00 -4.87835007e-01 5.65292147e-01
 6.17467167e+00 -4.67527352e-01 5.41760097e-01
 8.19772045e+00 -7.34511486e-01 7.20080747e-01
 8.21161153e+00 -7.35756119e-01 7.21300927e-01
 0.00000000e+00 0.00000000e+00 0.00000000e+00
 0.00000000e+00 0.00000000e+00 0.00000000e+00
 5.07039468e+00 2.53306352e-01 -8.04073150e-01
 0.00000000e+00 0.00000000e+00 0.00000000e+00
 0.00000000e+00 0.00000000e+00 0.00000000e+00
 9.27234798e+00 3.33519707e-01 -1.46954536e+00
 7.16888353e+00 1.57677402e-01 -1.13571422e+00
 9.25635182e+00 2.03590629e-01 -1.46641668e+00
 9.25630369e+00 7.59316019e-02 -1.46610381e+00
 9.25827900e+00 7.59478058e-02 -1.46641668e+00
 9.25842749e+00 -5.49412596e-02 -1.46641668e+00
 9.25842749e+00 -5.49412596e-02 -1.46641668e+00
 0.00000000e+00 0.00000000e+00 0.00000000e+00
 8.70774201e+00 -1.71758278e-01 -1.37943911e+00
 8.14380636e+00 -2.74426735e-01 -1.29058434e+00
 7.72921258e+00 -2.60455920e-01 -1.22488186e+00
 7.29665239e+00 -3.47930502e-01 -1.15698930e+00
 6.89018663e+00 -3.28548759e-01 -1.09253830e+00
 6.58721180e+00 -4.06353203e-01 -1.04529510e+00
 6.21654558e+00 -3.83487473e-01 -9.86475737e-01
 5.99194433e+00 -4.53691794e-01 -9.51747285e-01
 5.65314932e+00 -4.28039267e-01 -8.97933829e-01
 9.31608825e+00 -8.34716659e-01 -1.48143438e+00
 9.33182821e+00 -8.36126951e-01 -1.48393734e+00
 8.13020278e+00 5.20057198e-01 1.00030357e+00
 8.12425965e+00 5.19677039e-01 9.99572355e-01
 8.12477570e+00 4.05896862e-01 9.98841139e-01
 8.14063665e+00 4.06689242e-01 1.00079105e+00
 8.16139188e+00 2.93559413e-01 1.00274096e+00
 8.16337569e+00 2.93630769e-01 1.00298470e+00
 8.46834076e+00 1.86258566e-01 1.04003298e+00
 8.65290970e+00 1.90318104e-01 1.06270067e+00
 8.69441176e+00 7.13222723e-02 1.06757545e+00
 8.67456150e+00 7.11594360e-02 1.06513806e+00
 8.65882017e+00 -5.13830764e-02 1.06318815e+00
 8.63301442e+00 -5.12299402e-02 1.06001955e+00
 8.61164041e+00 -1.69862696e-01 1.05758216e+00
 8.60767100e+00 -1.69784400e-01 1.05709468e+00
 8.58065381e+00 -2.89147446e-01 1.05416982e+00
 8.56875001e+00 -2.88746317e-01 1.05270739e+00
 8.12171005e+00 -3.87272204e-01 9.98353661e-01
 7.50702985e+00 -3.57962052e-01 9.22794668e-01
 7.24769044e+00 -4.47096938e-01 8.91596116e-01
 6.83557463e+00 -4.21674258e-01 8.40898469e-01
 6.48855951e+00 -4.91293984e-01 7.98975415e-01
 6.19758384e+00 -4.69262192e-01 7.63145828e-01
 5.90185763e+00 -5.28803372e-01 7.27559980e-01
 5.64284813e+00 -5.05596256e-01 6.95630212e-01
 9.41986214e+00 6.02551651e-01 -1.15897746e+00
 0.00000000e+00 0.00000000e+00 0.00000000e+00
 0.00000000e+00 0.00000000e+00 0.00000000e+00
 9.28064301e+00 4.63641584e-01 -1.14094079e+00
 9.28621181e+00 3.34018379e-01 -1.14094079e+00
 9.26835753e+00 3.33376173e-01 -1.13874714e+00
 9.25424723e+00 2.03544339e-01 -1.13655350e+00
 9.24432417e+00 2.03326084e-01 -1.13533480e+00
 9.27403921e+00 7.60770904e-02 -1.13874714e+00
 9.27999428e+00 7.61259413e-02 -1.13947836e+00
 9.27220289e+00 -5.50230054e-02 -1.13850341e+00
 9.28808335e+00 -5.51172431e-02 -1.14045332e+00
 9.21896053e+00 -1.81841950e-01 -1.13216620e+00
 8.76049338e+00 -1.72798787e-01 -1.07586256e+00
 8.21758799e+00 -2.76912999e-01 -1.00956564e+00
 7.80095509e+00 -2.62873470e-01 -9.58380517e-01
 7.41581924e+00 -3.53612803e-01 -9.11582689e-01
 6.95778334e+00 -3.31772013e-01 -8.55279052e-01
 9.30034415e+00 -5.73721439e-01 -1.14410940e+00
 6.27684071e+00 -3.87206971e-01 -7.72164160e-01
 6.05506514e+00 -4.58471110e-01 -7.45596643e-01
 5.71460381e+00 -4.32692414e-01 -7.03673589e-01
 9.32038756e+00 -8.35101874e-01 -1.14898417e+00
 9.33422776e+00 -8.36341949e-01 -1.15069034e+00
 6.95294354e+00 4.44752539e-01 1.10348872e+00
 6.94900084e+00 4.44500341e-01 1.10286298e+00
 6.94071926e+00 3.46743870e-01 1.10067290e+00
 6.91704427e+00 3.45561117e-01 1.09691847e+00
 6.90737611e+00 2.48453365e-01 1.09472839e+00
 6.90737611e+00 2.48453365e-01 1.09472839e+00
 6.89634746e+00 1.51683054e-01 1.09253830e+00
 6.88449807e+00 1.51422430e-01 1.09066109e+00
 6.87012895e+00 5.63572581e-02 1.08815814e+00
 6.85630177e+00 5.62438306e-02 1.08596806e+00
 6.86036242e+00 -4.07106880e-02 1.08659379e+00
 6.84258435e+00 -4.06051895e-02 1.08377797e+00
 6.83939908e+00 -1.34905629e-01 1.08346510e+00
 6.81569917e+00 -1.34438153e-01 1.07971068e+00
 6.79736371e+00 -2.29054848e-01 1.07720773e+00
 6.78946668e+00 -2.28788738e-01 1.07595625e+00
 6.78363735e+00 -3.23468108e-01 1.07564338e+00
 6.77574481e+00 -3.23091764e-01 1.07439191e+00
 6.75480024e+00 -4.16691431e-01 1.07188895e+00
 6.74297047e+00 -4.15961674e-01 1.07001174e+00
 6.69514095e+00 -5.06935703e-01 1.06344149e+00
 6.08255230e+00 -4.60552354e-01 9.66139256e-01
 5.94970451e+00 -5.33090428e-01 9.46115645e-01
 5.66441775e+00 -5.07528883e-01 9.00749650e-01
 0.00000000e+00 0.00000000e+00 0.00000000e+00
 9.30337629e+00 5.95100508e-01 -8.15603441e-01
 0.00000000e+00 0.00000000e+00 0.00000000e+00
 9.23914166e+00 4.61568263e-01 -8.09328227e-01
 0.00000000e+00 0.00000000e+00 0.00000000e+00
 0.00000000e+00 0.00000000e+00 0.00000000e+00
 9.26237055e+00 2.03723009e-01 -8.10548408e-01
 9.27631390e+00 2.04029689e-01 -8.11768588e-01
 9.26031434e+00 7.59645022e-02 -8.10199785e-01
 9.25632970e+00 7.59318152e-02 -8.09851162e-01
 9.26046286e+00 -5.49533379e-02 -8.10199785e-01
 9.27241699e+00 -5.50242759e-02 -8.11245653e-01
 9.26280894e+00 -1.82706850e-01 -8.10548408e-01
 8.78074448e+00 -1.73198236e-01 -7.68365028e-01
 8.31549822e+00 -2.80212339e-01 -7.27924763e-01
 7.87941246e+00 -2.65517295e-01 -6.89750548e-01
 7.48089183e+00 -3.56715697e-01 -6.55236874e-01
 7.04107350e+00 -3.35743585e-01 -6.16714036e-01
 6.65587509e+00 -4.10588917e-01 -5.83420542e-01
 6.39934450e+00 -3.94764008e-01 -5.60934360e-01
 6.13493761e+00 -4.64518810e-01 -5.38273867e-01
 5.78925136e+00 -4.38344499e-01 -5.07943669e-01
 5.52666460e+00 -4.95186272e-01 -4.85457487e-01
 5.30837623e+00 -4.75627747e-01 -4.66283224e-01
 5.72296974e+00 3.66075937e-01 1.11470615e+00
 5.71121424e+00 3.65323984e-01 1.11241644e+00
 5.72360148e+00 2.85939202e-01 1.11394292e+00
 5.71575825e+00 2.85547371e-01 1.11241644e+00
 5.71526399e+00 2.05573947e-01 1.11165321e+00
 5.69564414e+00 2.04868235e-01 1.10783703e+00
 5.69206102e+00 1.25195142e-01 1.10669217e+00
 5.68813546e+00 1.25108801e-01 1.10592894e+00
 5.68931973e+00 4.66708068e-02 1.10592894e+00
 5.65987191e+00 4.64292394e-02 1.10020467e+00
 5.66388912e+00 -3.36105892e-02 1.10096790e+00
 5.63247761e+00 -3.34241873e-02 1.09486202e+00
 5.64129574e+00 -1.11273306e-01 1.09677011e+00
 5.64522148e+00 -1.11350741e-01 1.09753334e+00
 5.60779798e+00 -1.88969337e-01 1.09066422e+00
 5.60583584e+00 -1.88903218e-01 1.09028260e+00
 5.59480780e+00 -2.66780460e-01 1.08875613e+00
 5.59088574e+00 -2.66593443e-01 1.08799289e+00
 5.61013290e+00 -3.46078969e-01 1.09257231e+00
 5.57878042e+00 -3.44144892e-01 1.08646642e+00
 5.56951631e+00 -4.21706830e-01 1.08570318e+00
 5.56168571e+00 -4.21113920e-01 1.08417671e+00
 5.56708339e+00 -4.98807775e-01 1.08646642e+00
 5.54948461e+00 -4.97230932e-01 1.08303186e+00
 9.23442849e+00 5.90690187e-01 -4.84944971e-01
 9.23044212e+00 5.90435195e-01 -4.84735627e-01
 9.23778613e+00 4.61500544e-01 -4.84735627e-01
 9.24177567e+00 4.61699853e-01 -4.84944971e-01
 9.25330906e+00 3.32834890e-01 -4.85258986e-01
 9.25730100e+00 3.32978478e-01 -4.85468330e-01
 9.25705419e+00 2.03606077e-01 -4.85258986e-01
 9.26104774e+00 2.03693914e-01 -4.85468330e-01
 9.26297590e+00 7.59863356e-02 -4.85468330e-01
 9.27695625e+00 7.61010195e-02 -4.86201033e-01
 9.28109948e+00 -5.50757995e-02 -4.86410377e-01
 9.27710503e+00 -5.50520957e-02 -4.86201033e-01
 9.27945791e+00 -1.83035248e-01 -4.86410377e-01
 8.80619956e+00 -1.73700332e-01 -4.61603134e-01
 8.45559000e+00 -2.84933096e-01 -4.43390221e-01
 7.96653911e+00 -2.68453254e-01 -4.17745603e-01
 7.47124626e+00 -3.56255762e-01 -3.91996312e-01
 7.07623778e+00 -3.37420344e-01 -3.71271274e-01
 9.30950333e+00 -5.74286452e-01 -4.88817831e-01
 6.46880906e+00 -3.99049151e-01 -3.39660356e-01
 6.18179718e+00 -4.68066874e-01 -3.24901616e-01
 5.83128290e+00 -4.41527000e-01 -3.06479360e-01
 5.55210827e+00 -4.97466011e-01 -2.92139308e-01
 5.34721140e+00 -4.79107358e-01 -2.81358101e-01
 4.85219000e+00 3.10375572e-01 1.12250576e+00
 4.84441094e+00 3.09877976e-01 1.12070615e+00
 4.82490954e+00 2.41042426e-01 1.11530733e+00
 4.82101692e+00 2.40847958e-01 1.11440752e+00
 4.83169967e+00 1.73792772e-01 1.11620713e+00
 4.82390975e+00 1.73512574e-01 1.11440752e+00
 4.82196561e+00 1.06057660e-01 1.11350772e+00
 4.79858638e+00 1.05543441e-01 1.10810889e+00
 4.79568810e+00 3.93401396e-02 1.10720909e+00
 4.78789341e+00 3.92761979e-02 1.10540948e+00
 4.80355984e+00 -2.85052325e-02 1.10900870e+00
 4.79186761e+00 -2.84358486e-02 1.10630929e+00
 4.77932989e+00 -9.42712212e-02 1.10360987e+00
 4.75205283e+00 -9.37331873e-02 1.09731124e+00
 4.76196671e+00 -1.60466853e-01 1.10001066e+00
 4.75807144e+00 -1.60335592e-01 1.09911085e+00
 4.75147595e+00 -2.26567379e-01 1.09821105e+00
 4.73979678e+00 -2.26010475e-01 1.09551163e+00
 4.73228908e+00 -2.91926369e-01 1.09461183e+00
 4.73617917e+00 -2.92166342e-01 1.09551163e+00
 4.72580869e+00 -3.57823855e-01 1.09416193e+00
 4.72775187e+00 -3.57970987e-01 1.09461183e+00
 4.70683917e+00 -4.21730340e-01 1.09101261e+00
 4.70295724e+00 -4.21382521e-01 1.09011281e+00
 9.23371924e+00 5.90644819e-01 -1.61504569e-01
 9.24569294e+00 5.91410730e-01 -1.61713998e-01
 9.24306307e+00 4.61764168e-01 -1.61539474e-01
 9.23707145e+00 4.61464840e-01 -1.61434760e-01
 9.24461252e+00 3.32522082e-01 -1.61469664e-01
 9.25260613e+00 3.32809606e-01 -1.61609284e-01
 9.27034545e+00 2.03898414e-01 -1.61853617e-01
 9.27034545e+00 2.03898414e-01 -1.61853617e-01
 9.26827629e+00 7.60298159e-02 -1.61783808e-01
 9.27027592e+00 7.60462193e-02 -1.61818712e-01
 9.28042290e+00 -5.50717846e-02 -1.61993237e-01
 9.29242087e+00 -5.51429827e-02 -1.62202665e-01
 9.29277659e+00 -1.83297956e-01 -1.62237570e-01
 9.12283554e+00 -1.79945906e-01 -1.59270661e-01
 8.59181374e+00 -2.89523509e-01 -1.50055791e-01
 8.09017493e+00 -2.72619485e-01 -1.41294683e-01
 7.51032132e+00 -3.58119001e-01 -1.31242096e-01
 7.14479238e+00 -3.40689273e-01 -1.24854516e-01
 9.30289625e+00 -5.73878873e-01 -1.62691333e-01
 9.32285526e+00 -5.75110109e-01 -1.63040381e-01
 6.20130186e+00 -4.69543709e-01 -1.08553968e-01
 5.86830591e+00 -4.44330269e-01 -1.02724864e-01
 5.60867382e+00 -5.02534255e-01 -9.82919531e-02
 9.31924176e+00 -8.34999212e-01 -1.63319619e-01
 4.20284707e+00 2.68839650e-01 1.12845104e+00
 4.19899125e+00 2.68593008e-01 1.12741576e+00
 4.20619098e+00 2.10132536e-01 1.12845104e+00
 4.19461431e+00 2.09554189e-01 1.12534521e+00
 4.18168644e+00 1.50412262e-01 1.12120410e+00
 4.18168644e+00 1.50412262e-01 1.12120410e+00
 4.18917307e+00 9.21395810e-02 1.12275702e+00
 4.19110445e+00 9.21820612e-02 1.12327466e+00
 4.18038632e+00 3.42926767e-02 1.12016883e+00
 4.16493203e+00 3.41659016e-02 1.11602772e+00
 4.16886246e+00 -2.47388182e-02 1.11706300e+00
 4.16886246e+00 -2.47388182e-02 1.11706300e+00
 4.16426215e+00 -8.21391467e-02 1.11602772e+00
 4.16812511e+00 -8.22153425e-02 1.11706300e+00
 4.14340184e+00 -1.39622701e-01 1.11085134e+00
 4.14340184e+00 -1.39622701e-01 1.11085134e+00
 4.13718920e+00 -1.97275989e-01 1.10981607e+00
 4.14104852e+00 -1.97460015e-01 1.11085134e+00
 4.13403152e+00 -2.55020941e-01 1.10981607e+00
 4.12631878e+00 -2.54545155e-01 1.10774551e+00
 4.11465720e+00 -3.11549324e-01 1.10567496e+00
 4.11850988e+00 -3.11841037e-01 1.10671024e+00
 4.12151541e+00 -3.69285636e-01 1.10878079e+00
 4.11574298e+00 -3.68768429e-01 1.10722787e+00
 3.75912266e+00 8.84463450e-01 -1.03475854e+00
 3.77040567e+00 8.87118167e-01 -1.03786437e+00
 3.77691011e+00 8.32480966e-01 -1.03631146e+00
 3.75804443e+00 8.28322720e-01 -1.03113508e+00
 3.75775511e+00 7.74090687e-01 -1.02802925e+00
 3.76343148e+00 7.75260008e-01 -1.02958216e+00
 3.78147847e+00 7.24092000e-01 -1.03165271e+00
 3.77578633e+00 7.23002048e-01 -1.03009980e+00
 3.78920036e+00 6.71548294e-01 -1.03113508e+00
 3.77398268e+00 6.68851313e-01 -1.02699397e+00
 3.80774093e+00 6.20129990e-01 -1.03372327e+00
 3.81155439e+00 6.20751051e-01 -1.03475854e+00
 3.81602814e+00 5.66905176e-01 -1.03372327e+00
 3.86188926e+00 5.73718258e-01 -1.04614658e+00
 3.84645706e+00 5.17327233e-01 -1.03993492e+00
 3.95367537e+00 5.31747504e-01 -1.06892266e+00
 0.00000000e+00 0.00000000e+00 0.00000000e+00
 0.00000000e+00 0.00000000e+00 0.00000000e+00
 0.00000000e+00 0.00000000e+00 0.00000000e+00
 0.00000000e+00 0.00000000e+00 0.00000000e+00
 0.00000000e+00 0.00000000e+00 0.00000000e+00
 0.00000000e+00 0.00000000e+00 0.00000000e+00
 0.00000000e+00 0.00000000e+00 0.00000000e+00
 0.00000000e+00 0.00000000e+00 0.00000000e+00
 9.13512151e+00 2.14935287e+00 1.63808287e-01
 9.12538880e+00 2.14706292e+00 1.63633763e-01
 9.15287648e+00 2.01741509e+00 1.63598858e-01
 9.13725390e+00 2.01397167e+00 1.63319619e-01
 9.14456762e+00 1.88376422e+00 1.62970571e-01
 9.13477477e+00 1.88174691e+00 1.62796047e-01
 9.16015763e+00 1.75402211e+00 1.62796047e-01
 9.16015763e+00 1.75402211e+00 1.62796047e-01
 9.17165672e+00 1.62546444e+00 1.62586618e-01
 9.15590462e+00 1.62267274e+00 1.62307380e-01
 9.17766819e+00 1.49467818e+00 1.62307380e-01
 9.17372081e+00 1.49403531e+00 1.62237570e-01
 9.19764256e+00 1.36639223e+00 1.62307380e-01
 9.17984067e+00 1.36374759e+00 1.61993237e-01
 9.18389802e+00 1.23518357e+00 1.61748903e-01
 9.18587987e+00 1.23545012e+00 1.61783808e-01
 9.20838339e+00 1.10618418e+00 1.61888522e-01
 9.20838339e+00 1.10618418e+00 1.61888522e-01
 9.21895342e+00 9.77085725e-01 1.61818712e-01
 9.20304496e+00 9.75399641e-01 1.61539474e-01
 9.22542665e+00 8.50945199e-01 1.61713998e-01
 9.18958428e+00 8.47639131e-01 1.61085711e-01
 9.22855976e+00 7.19821104e-01 1.61574379e-01
 9.27640712e+00 7.23553164e-01 1.62412094e-01
 0.00000000e+00 0.00000000e+00 0.00000000e+00
 0.00000000e+00 0.00000000e+00 0.00000000e+00
 3.75093342e+00 8.26755359e-01 -8.86757056e-01
 3.76044872e+00 8.28852658e-01 -8.89006567e-01
 3.77724521e+00 7.78105611e-01 -8.90356273e-01
 3.75815857e+00 7.74173799e-01 -8.85857252e-01
 3.77242933e+00 7.22359236e-01 -8.86757056e-01
 3.77242933e+00 7.22359236e-01 -8.86757056e-01
 3.77819272e+00 6.69597444e-01 -8.85857252e-01
 3.78394923e+00 6.70617653e-01 -8.87206958e-01
 3.78140327e+00 6.15840630e-01 -8.84507546e-01
 3.77563308e+00 6.14900893e-01 -8.83157839e-01
 3.81661935e+00 5.66993007e-01 -8.90806175e-01
 3.82240211e+00 5.67852087e-01 -8.92155882e-01
 3.85690704e+00 5.18732697e-01 -8.98454511e-01
 3.89553405e+00 5.23927817e-01 -9.07452553e-01
 0.00000000e+00 0.00000000e+00 0.00000000e+00
 0.00000000e+00 0.00000000e+00 0.00000000e+00
 0.00000000e+00 0.00000000e+00 0.00000000e+00
 0.00000000e+00 0.00000000e+00 0.00000000e+00
 0.00000000e+00 0.00000000e+00 0.00000000e+00
 0.00000000e+00 0.00000000e+00 0.00000000e+00
 0.00000000e+00 0.00000000e+00 0.00000000e+00
 0.00000000e+00 0.00000000e+00 0.00000000e+00
 8.02553549e+00 1.88828443e+00 4.32085655e-01
 8.01192630e+00 1.88508240e+00 4.31352951e-01
 8.01241876e+00 1.76604312e+00 4.29992216e-01
 8.02412142e+00 1.76862254e+00 4.30620248e-01
 8.04383149e+00 1.65701459e+00 4.30410904e-01
 8.03013820e+00 1.65419380e+00 4.29678201e-01
 8.04656675e+00 1.54078746e+00 4.29364185e-01
 8.03479702e+00 1.53853375e+00 4.28736154e-01
 8.04737962e+00 1.42621227e+00 4.28317466e-01
 8.05131284e+00 1.42690935e+00 4.28526810e-01
 8.06059436e+00 1.31275115e+00 4.28003450e-01
 8.03891020e+00 1.30921966e+00 4.26852059e-01
 8.05443058e+00 1.19655784e+00 4.26747387e-01
 8.06233289e+00 1.19773180e+00 4.27166075e-01
 8.07412158e+00 1.08592477e+00 4.26956731e-01
 8.07808046e+00 1.08645721e+00 4.27166075e-01
 8.07081912e+00 9.69530923e-01 4.26014684e-01
 8.07875113e+00 9.70483779e-01 4.26433371e-01
 8.07761077e+00 8.56118674e-01 4.25700668e-01
 8.09548598e+00 8.58013207e-01 4.26642715e-01
 8.08255029e+00 7.45527295e-01 4.25386652e-01
 8.09448319e+00 7.46627975e-01 4.26014684e-01
 8.08829949e+00 6.30881613e-01 4.25177309e-01
 8.08829949e+00 6.30881613e-01 4.25177309e-01
 3.77627350e+00 8.88498778e-01 -7.54077150e-01
 3.77436243e+00 8.88049133e-01 -7.53695532e-01
 3.76928423e+00 8.30800122e-01 -7.50260970e-01
 3.78270488e+00 8.33758210e-01 -7.52932296e-01
 3.79576377e+00 7.81920402e-01 -7.53313914e-01
 3.79960953e+00 7.82712621e-01 -7.54077150e-01
 3.80631109e+00 7.28847045e-01 -7.53313914e-01
 3.79474176e+00 7.26631705e-01 -7.51024206e-01
 3.80439960e+00 6.74242010e-01 -7.51024206e-01
 0.00000000e+00 0.00000000e+00 0.00000000e+00
 3.91807980e+00 6.38099816e-01 -7.71631577e-01
 0.00000000e+00 0.00000000e+00 0.00000000e+00
 0.00000000e+00 0.00000000e+00 0.00000000e+00
 0.00000000e+00 0.00000000e+00 0.00000000e+00
 3.93816817e+00 5.29661872e-01 -7.72394813e-01
 0.00000000e+00 0.00000000e+00 0.00000000e+00
 4.07391217e+00 4.89390700e-01 -7.97581601e-01
 4.07391217e+00 4.89390700e-01 -7.97581601e-01
 0.00000000e+00 0.00000000e+00 0.00000000e+00
 0.00000000e+00 0.00000000e+00 0.00000000e+00
 0.00000000e+00 0.00000000e+00 0.00000000e+00
 0.00000000e+00 0.00000000e+00 0.00000000e+00
 0.00000000e+00 0.00000000e+00 0.00000000e+00
 0.00000000e+00 0.00000000e+00 0.00000000e+00
 8.02924097e+00 1.88915628e+00 7.21649550e-01
 8.01566495e+00 1.88596205e+00 7.20429370e-01
 8.03179680e+00 1.77031429e+00 7.19557812e-01
 8.01428562e+00 1.76645460e+00 7.17989009e-01
 8.03787911e+00 1.65578841e+00 7.17989009e-01
 8.02226778e+00 1.65257251e+00 7.16594517e-01
 8.04847300e+00 1.54115248e+00 7.16943140e-01
 8.03868881e+00 1.53927896e+00 7.16071582e-01
 8.03756776e+00 1.42447335e+00 7.14154156e-01
 8.04541503e+00 1.42586410e+00 7.14851402e-01
 0.00000000e+00 0.00000000e+00 0.00000000e+00
 0.00000000e+00 0.00000000e+00 0.00000000e+00
 8.06435386e+00 1.19803203e+00 7.13282599e-01
 8.05450006e+00 1.19656816e+00 7.12411041e-01
 8.05246083e+00 1.08301151e+00 7.10842238e-01
 8.05641005e+00 1.08354266e+00 7.11190861e-01
 0.00000000e+00 0.00000000e+00 0.00000000e+00
 8.07290087e+00 9.69780999e-01 7.11365172e-01
 8.08763550e+00 8.57181161e-01 7.11539484e-01
 8.07971033e+00 8.56341199e-01 7.10842238e-01
 8.09260311e+00 7.46454557e-01 7.11016549e-01
 8.09458708e+00 7.46637557e-01 7.11190861e-01
 8.09042869e+00 6.31047689e-01 7.09970680e-01
 8.09440141e+00 6.31357558e-01 7.10319303e-01
 0.00000000e+00 0.00000000e+00 0.00000000e+00
 0.00000000e+00 0.00000000e+00 0.00000000e+00
 0.00000000e+00 0.00000000e+00 0.00000000e+00
 0.00000000e+00 0.00000000e+00 0.00000000e+00
 0.00000000e+00 0.00000000e+00 0.00000000e+00
 0.00000000e+00 0.00000000e+00 0.00000000e+00
 0.00000000e+00 0.00000000e+00 0.00000000e+00
 0.00000000e+00 0.00000000e+00 0.00000000e+00
 0.00000000e+00 0.00000000e+00 0.00000000e+00
 0.00000000e+00 0.00000000e+00 0.00000000e+00
 0.00000000e+00 0.00000000e+00 0.00000000e+00
 0.00000000e+00 0.00000000e+00 0.00000000e+00
 0.00000000e+00 0.00000000e+00 0.00000000e+00
 0.00000000e+00 0.00000000e+00 0.00000000e+00
 0.00000000e+00 0.00000000e+00 0.00000000e+00
 0.00000000e+00 0.00000000e+00 0.00000000e+00
 0.00000000e+00 0.00000000e+00 0.00000000e+00
 0.00000000e+00 0.00000000e+00 0.00000000e+00
 0.00000000e+00 0.00000000e+00 0.00000000e+00
 0.00000000e+00 0.00000000e+00 0.00000000e+00
 0.00000000e+00 0.00000000e+00 0.00000000e+00
 0.00000000e+00 0.00000000e+00 0.00000000e+00
 0.00000000e+00 0.00000000e+00 0.00000000e+00
 0.00000000e+00 0.00000000e+00 0.00000000e+00
 8.01336029e+00 1.88541980e+00 1.01078433e+00
 7.99790168e+00 1.88178263e+00 1.00883442e+00
 8.01982753e+00 1.76767611e+00 1.00834695e+00
 8.03339746e+00 1.77066710e+00 1.01005312e+00
 8.03760453e+00 1.65573185e+00 1.00761573e+00
 8.03566026e+00 1.65533133e+00 1.00737199e+00
 8.04434132e+00 1.54036133e+00 1.00566582e+00
 8.04044198e+00 1.53961467e+00 1.00517834e+00
 8.05699612e+00 1.42791658e+00 1.00469087e+00
 8.04917759e+00 1.42653092e+00 1.00371591e+00
 8.05459552e+00 1.31177418e+00 1.00200974e+00
 8.05655480e+00 1.31209327e+00 1.00225348e+00
 8.06623499e+00 1.19831149e+00 1.00127853e+00
 8.07212562e+00 1.19918660e+00 1.00200974e+00
 8.06428377e+00 1.08460163e+00 9.99084877e-01
 8.06625115e+00 1.08486624e+00 9.99328616e-01
 8.08472337e+00 9.71201212e-01 9.99816093e-01
 8.09457798e+00 9.72385026e-01 1.00103479e+00
 8.10933961e+00 8.59481506e-01 1.00127853e+00
 8.10736557e+00 8.59272284e-01 1.00103479e+00
 8.10645151e+00 7.47731922e-01 9.99572355e-01
 8.11238161e+00 7.48278909e-01 1.00030357e+00
 8.11423283e+00 6.32904394e-01 9.99328616e-01
 8.11225374e+00 6.32750028e-01 9.99084877e-01
 0.00000000e+00 0.00000000e+00 0.00000000e+00
 0.00000000e+00 0.00000000e+00 0.00000000e+00
 0.00000000e+00 0.00000000e+00 0.00000000e+00
 0.00000000e+00 0.00000000e+00 0.00000000e+00
 0.00000000e+00 0.00000000e+00 0.00000000e+00
 0.00000000e+00 0.00000000e+00 0.00000000e+00
 0.00000000e+00 0.00000000e+00 0.00000000e+00
 0.00000000e+00 0.00000000e+00 0.00000000e+00
 0.00000000e+00 0.00000000e+00 0.00000000e+00
 0.00000000e+00 0.00000000e+00 0.00000000e+00
 0.00000000e+00 0.00000000e+00 0.00000000e+00
 0.00000000e+00 0.00000000e+00 0.00000000e+00
 0.00000000e+00 0.00000000e+00 0.00000000e+00
 0.00000000e+00 0.00000000e+00 0.00000000e+00
 0.00000000e+00 0.00000000e+00 0.00000000e+00
 0.00000000e+00 0.00000000e+00 0.00000000e+00
 0.00000000e+00 0.00000000e+00 0.00000000e+00
 0.00000000e+00 0.00000000e+00 0.00000000e+00
 0.00000000e+00 0.00000000e+00 0.00000000e+00
 0.00000000e+00 0.00000000e+00 0.00000000e+00
 0.00000000e+00 0.00000000e+00 0.00000000e+00
 0.00000000e+00 0.00000000e+00 0.00000000e+00
 0.00000000e+00 0.00000000e+00 0.00000000e+00
 0.00000000e+00 0.00000000e+00 0.00000000e+00
 7.09154338e+00 1.66853053e+00 1.15386061e+00
 7.08000616e+00 1.66581600e+00 1.15198340e+00
 7.07969893e+00 1.56045932e+00 1.14822897e+00
 7.07198264e+00 1.55875855e+00 1.14697750e+00
 7.09280205e+00 1.46110426e+00 1.14697750e+00
 7.08119354e+00 1.45871293e+00 1.14510028e+00
 7.08146882e+00 1.35598681e+00 1.14197159e+00
 7.06206754e+00 1.35227178e+00 1.13884291e+00
 7.06837053e+00 1.25270551e+00 1.13696569e+00
 7.05086493e+00 1.24960305e+00 1.13414987e+00
 7.06567514e+00 1.15071827e+00 1.13383700e+00
 7.05202731e+00 1.14849558e+00 1.13164692e+00
 7.04392821e+00 1.04643866e+00 1.12789249e+00
 7.02243495e+00 1.04324564e+00 1.12445093e+00
 7.02832036e+00 9.45270276e-01 1.12319946e+00
 7.02048936e+00 9.44217050e-01 1.12194798e+00
 7.02332955e+00 8.43698152e-01 1.12038364e+00
 6.99979423e+00 8.40870903e-01 1.11662921e+00
 7.00299482e+00 7.42223759e-01 1.11537774e+00
 6.99513732e+00 7.41390970e-01 1.11412626e+00
 6.99671369e+00 6.45370686e-01 1.11287478e+00
 6.98491153e+00 6.44282065e-01 1.11099757e+00
 6.96378063e+00 5.43169941e-01 1.10630454e+00
 6.95393366e+00 5.42401884e-01 1.10474019e+00
 0.00000000e+00 0.00000000e+00 0.00000000e+00
 0.00000000e+00 0.00000000e+00 0.00000000e+00
 0.00000000e+00 0.00000000e+00 0.00000000e+00
 0.00000000e+00 0.00000000e+00 0.00000000e+00
 0.00000000e+00 0.00000000e+00 0.00000000e+00
 0.00000000e+00 0.00000000e+00 0.00000000e+00
 0.00000000e+00 0.00000000e+00 0.00000000e+00
 0.00000000e+00 0.00000000e+00 0.00000000e+00
 0.00000000e+00 0.00000000e+00 0.00000000e+00
 0.00000000e+00 0.00000000e+00 0.00000000e+00
 0.00000000e+00 0.00000000e+00 0.00000000e+00
 0.00000000e+00 0.00000000e+00 0.00000000e+00
 0.00000000e+00 0.00000000e+00 0.00000000e+00
 0.00000000e+00 0.00000000e+00 0.00000000e+00
 0.00000000e+00 0.00000000e+00 0.00000000e+00
 0.00000000e+00 0.00000000e+00 0.00000000e+00
 0.00000000e+00 0.00000000e+00 0.00000000e+00
 0.00000000e+00 0.00000000e+00 0.00000000e+00
 0.00000000e+00 0.00000000e+00 0.00000000e+00
 0.00000000e+00 0.00000000e+00 0.00000000e+00
 0.00000000e+00 0.00000000e+00 0.00000000e+00
 0.00000000e+00 0.00000000e+00 0.00000000e+00
 5.32542090e+00 4.15379046e-01 -4.67329093e-01
 0.00000000e+00 0.00000000e+00 0.00000000e+00
 5.79436299e+00 1.36332404e+00 1.15706575e+00
 5.79054085e+00 1.36242475e+00 1.15630251e+00
 5.80922239e+00 1.28042949e+00 1.15630251e+00
 5.78621557e+00 1.27535848e+00 1.15172310e+00
 5.79363539e+00 1.19347830e+00 1.14981501e+00
 5.79171251e+00 1.19308219e+00 1.14943339e+00
 5.79623665e+00 1.10988562e+00 1.14714368e+00
 5.79045198e+00 1.10877795e+00 1.14599883e+00
 5.79552338e+00 1.02712274e+00 1.14409074e+00
 5.78199147e+00 1.02472452e+00 1.14141941e+00
 5.78217118e+00 9.41686375e-01 1.13874808e+00
 5.77442028e+00 9.40424061e-01 1.13722161e+00
 5.79669750e+00 8.61151359e-01 1.13912970e+00
 5.78310390e+00 8.59131909e-01 1.13645838e+00
 5.77105079e+00 7.76174462e-01 1.13187896e+00
 5.75743064e+00 7.74342628e-01 1.12920763e+00
 5.76390348e+00 6.92405886e-01 1.12844440e+00
 5.76780196e+00 6.92874202e-01 1.12920763e+00
 5.76519986e+00 6.11034054e-01 1.12691793e+00
 5.74567666e+00 6.08964856e-01 1.12310175e+00
 5.73974949e+00 5.29429419e-01 1.12043042e+00
 5.73192966e+00 5.28708126e-01 1.11890395e+00
 5.74274569e+00 4.47930083e-01 1.11966718e+00
 5.74078838e+00 4.47777414e-01 1.11928557e+00
 0.00000000e+00 0.00000000e+00 0.00000000e+00
 0.00000000e+00 0.00000000e+00 0.00000000e+00
 0.00000000e+00 0.00000000e+00 0.00000000e+00
 0.00000000e+00 0.00000000e+00 0.00000000e+00
 0.00000000e+00 0.00000000e+00 0.00000000e+00
 0.00000000e+00 0.00000000e+00 0.00000000e+00
 4.45483985e+00 8.53029820e-01 -2.37709913e-01
 0.00000000e+00 0.00000000e+00 0.00000000e+00
 0.00000000e+00 0.00000000e+00 0.00000000e+00
 0.00000000e+00 0.00000000e+00 0.00000000e+00
 0.00000000e+00 0.00000000e+00 0.00000000e+00
 0.00000000e+00 0.00000000e+00 0.00000000e+00
 0.00000000e+00 0.00000000e+00 0.00000000e+00
 0.00000000e+00 0.00000000e+00 0.00000000e+00
 0.00000000e+00 0.00000000e+00 0.00000000e+00
 0.00000000e+00 0.00000000e+00 0.00000000e+00
 0.00000000e+00 0.00000000e+00 0.00000000e+00
 0.00000000e+00 0.00000000e+00 0.00000000e+00
 0.00000000e+00 0.00000000e+00 0.00000000e+00
 0.00000000e+00 0.00000000e+00 0.00000000e+00
 0.00000000e+00 0.00000000e+00 0.00000000e+00
 0.00000000e+00 0.00000000e+00 0.00000000e+00
 0.00000000e+00 0.00000000e+00 0.00000000e+00
 0.00000000e+00 0.00000000e+00 0.00000000e+00
 4.87703569e+00 1.14749110e+00 1.15669832e+00
 4.86565405e+00 1.14481318e+00 1.15399891e+00
 4.87754559e+00 1.07507559e+00 1.15309910e+00
 4.87373946e+00 1.07423667e+00 1.15219930e+00
 4.88045275e+00 1.00536435e+00 1.15039969e+00
 4.88045275e+00 1.00536435e+00 1.15039969e+00
 4.87487443e+00 9.33459652e-01 1.14590067e+00
 4.86721856e+00 9.31993677e-01 1.14410106e+00
 4.87576825e+00 8.64117372e-01 1.14320126e+00
 4.87576825e+00 8.64117372e-01 1.14320126e+00
 4.87197075e+00 7.93450821e-01 1.13960204e+00
 4.86812395e+00 7.92824330e-01 1.13870224e+00
 4.87100864e+00 7.23631984e-01 1.13690263e+00
 4.86137071e+00 7.22200184e-01 1.13465312e+00
 4.87279742e+00 6.55364344e-01 1.13510302e+00
 4.86507202e+00 6.54325320e-01 1.13330341e+00
 4.86222688e+00 5.84089328e-01 1.13060400e+00
 4.86029205e+00 5.83856901e-01 1.13015410e+00
 4.87378386e+00 5.16555885e-01 1.13150380e+00
 4.86603232e+00 5.15734325e-01 1.12970419e+00
 4.85319716e+00 4.47654616e-01 1.12520517e+00
 4.84543515e+00 4.46938655e-01 1.12340557e+00
 4.85126919e+00 3.78395549e-01 1.12340557e+00
 4.85126919e+00 3.78395549e-01 1.12340557e+00
 9.13512151e+00 2.14935287e+00 -1.63808287e-01
 9.12733535e+00 2.14752091e+00 -1.63668668e-01
 9.13725390e+00 2.01397167e+00 -1.63319619e-01
 9.13139543e+00 2.01268038e+00 -1.63214905e-01
 9.14848476e+00 1.88457115e+00 -1.63040381e-01
 9.15436047e+00 1.88578153e+00 -1.63145095e-01
 9.14248151e+00 1.75063742e+00 -1.62481904e-01
 9.14640954e+00 1.75138958e+00 -1.62551714e-01
 9.15787364e+00 1.62302170e+00 -1.62342285e-01
 9.15787364e+00 1.62302170e+00 -1.62342285e-01
 9.18358927e+00 1.49564249e+00 -1.62412094e-01
 9.17174712e+00 1.49371387e+00 -1.62202665e-01
 9.17786268e+00 1.36345375e+00 -1.61958332e-01
 9.17192872e+00 1.36257220e+00 -1.61853617e-01
 9.19182542e+00 1.23624976e+00 -1.61888522e-01
 9.19578913e+00 1.23678286e+00 -1.61958332e-01
 9.20044171e+00 1.10523016e+00 -1.61748903e-01
 9.18654376e+00 1.10356063e+00 -1.61504569e-01
 9.20702208e+00 9.75821162e-01 -1.61609284e-01
 9.20702208e+00 9.75821162e-01 -1.61609284e-01
 9.21746168e+00 8.50210518e-01 -1.61574379e-01
 9.21945292e+00 8.50394188e-01 -1.61609284e-01
 9.22058520e+00 7.19199094e-01 -1.61434760e-01
 9.21859156e+00 7.19043591e-01 -1.61399855e-01
 4.22172605e+00 9.93306876e-01 1.16209751e+00
 4.21796504e+00 9.92421970e-01 1.16106224e+00
 4.22779998e+00 9.31863060e-01 1.16002696e+00
 4.21648057e+00 9.29368112e-01 1.15692113e+00
 4.22510935e+00 8.70364806e-01 1.15588586e+00
 4.22510935e+00 8.70364806e-01 1.15588586e+00
