 7.20702747e+00 9.49668796e+00 1.65029949e+01
 4.26275840e+00 1.49856448e+01 1.66233769e+01
 6.44913769e+00 1.20541612e+01 1.49791205e+01
 8.15696370e+00 1.14004579e+01 1.24833687e+01
 9.30002825e+00 1.13756206e+01 1.03339562e+01
 5.02114735e+00 1.20283123e+01 1.80671020e+01
 6.95820895e+00 1.60669147e+01 9.94084068e+00
 7.11831348e+00 1.02436407e+01 1.59799844e+01
 4.04798793e+00 1.52592956e+01 1.71558507e+01
 4.96343543e+00 1.49480780e+01 1.53369143e+01
 4.05014912e+00 1.73411140e+01 1.46546096e+01
 5.17177672e+00 1.73084920e+01 1.24496050e+01
 4.49114035e+00 1.79578197e+01 1.31332698e+01
 5.34763912e+00 1.58445570e+01 1.34557821e+01
 5.50794273e+00 1.59000203e+01 1.30298061e+01
 6.37378416e+00 1.48229727e+01 1.23881854e+01
 8.26969685e+00 1.35303818e+01 1.01748196e+01
 6.13787979e+00 1.11809982e+01 1.70830465e+01
 3.75012554e+00 1.42839490e+01 1.82912037e+01
 5.90337693e+00 1.62147464e+01 1.14688842e+01
 5.48597536e+00 1.52110008e+01 1.34256208e+01
 7.54735626e+00 1.14815606e+01 1.32387876e+01
 4.04583263e+00 1.52681076e+01 1.67834938e+01
 3.11211461e+00 1.71779506e+01 1.67740845e+01
 4.63288615e+00 1.16374816e+01 1.87147083e+01
 5.84821759e+00 9.19952184e+00 1.89449163e+01
 3.37253238e+00 1.80511462e+01 1.50226112e+01
 5.95499401e+00 1.33309568e+01 1.43103392e+01
 3.77599298e+00 1.52314270e+01 1.70355511e+01
 4.74325436e+00 1.81336414e+01 1.25404623e+01
 7.80665620e+00 1.21314006e+01 1.21969653e+01
 4.73531500e+00 1.43402107e+01 1.66683917e+01
 4.56167329e+00 1.61166597e+01 1.44981192e+01
 3.50853481e+00 1.52993792e+01 1.74852435e+01
 5.43746125e+00 1.64825169e+01 1.26962951e+01
 3.93766818e+00 1.75907082e+01 1.43516265e+01
 7.86848283e+00 9.70563982e+00 1.49096011e+01
 5.38403649e+00 1.05616893e+01 1.89300028e+01
 4.74045530e+00 1.25658740e+01 1.79311452e+01
 6.33753185e+00 1.67043092e+01 1.07380263e+01
 6.49737894e+00 1.57512468e+01 1.13566006e+01
 7.29167655e+00 1.36361558e+01 1.15478845e+01
 8.03464785e+00 1.12397919e+01 1.26074019e+01
 6.34728876e+00 9.44575877e+00 1.81206831e+01
 6.17459395e+00 1.26520660e+01 1.46629709e+01
 5.18910284e+00 1.28991991e+01 1.69829468e+01
 3.56664200e+00 1.53443853e+01 1.75591026e+01
 6.13781923e+00 1.10837600e+01 1.64443824e+01
 3.22288386e+00 1.59023353e+01 1.78805662e+01
 6.67096115e+00 1.39001817e+01 1.33892229e+01
 4.41848403e+00 1.59153081e+01 1.54720654e+01
 5.96934482e+00 1.05105247e+01 1.76717201e+01
 7.52266908e+00 1.13323448e+01 1.33976000e+01
 6.75450959e+00 1.49746106e+01 1.17220500e+01
 6.54342063e+00 1.43654578e+01 1.25813304e+01
 3.36134846e+00 1.58441607e+01 1.72824697e+01
 3.03145490e+00 1.68985164e+01 1.73521074e+01
 4.14502226e+00 1.86110757e+01 1.31193633e+01
 7.34534238e+00 1.26890688e+01 1.25089006e+01
 7.54729187e+00 1.53672632e+01 9.65943375e+00
 1.97781335e+00 1.77064737e+01 1.80273757e+01
 5.39653394e+00 1.38962306e+01 1.54141662e+01
 7.89626033e+00 1.46102772e+01 9.46232229e+00
 5.65039125e+00 1.58355209e+01 1.29889145e+01
 8.61555472e+00 9.63859264e+00 1.30377281e+01
 6.17791264e+00 1.20494474e+01 1.57785909e+01
 6.07035666e+00 1.18513407e+01 1.58836572e+01
 5.43860879e+00 1.85765723e+01 1.08471763e+01
 6.07958258e+00 1.79017556e+01 9.91086468e+00
 6.00991309e+00 1.39168874e+01 1.39058489e+01
 4.12198690e+00 1.54826928e+01 1.62013997e+01
 7.21424070e+00 1.52443952e+01 1.03664151e+01
 9.04746876e+00 1.11252172e+01 1.09627914e+01
 8.78012951e+00 1.10615487e+01 1.13408035e+01
 4.54363706e+00 1.81796824e+01 1.28407108e+01
 5.18012378e+00 1.30994209e+01 1.65252312e+01
 3.93120936e+00 1.50271991e+01 1.73471407e+01
 3.15936014e+00 1.71606623e+01 1.67747924e+01
 2.27391890e+00 1.74725552e+01 1.81301271e+01
 7.47061829e+00 1.48346156e+01 1.05169825e+01
 5.48888327e+00 1.05459433e+01 1.82071357e+01
 6.67601357e+00 1.41523092e+01 1.28985459e+01
 3.51598089e+00 1.55221203e+01 1.77185201e+01
 5.58118918e+00 1.80731427e+01 1.09701046e+01
 5.98157685e+00 1.54978303e+01 1.24292914e+01
 4.63029855e+00 1.77623999e+01 1.27057107e+01
 3.23470185e+00 1.62541419e+01 1.74702103e+01
 3.98890496e+00 1.61614210e+01 1.63993127e+01
 7.29861797e+00 1.12720317e+01 1.41495522e+01
 6.06014364e+00 1.78444289e+01 9.71729133e+00
 9.33993422e+00 1.13243937e+01 9.96857208e+00
 6.53389102e+00 1.41006805e+01 1.26899700e+01
 8.63067144e+00 1.14110347e+01 1.10191947e+01
 3.25709590e+00 1.50286398e+01 1.84903143e+01
 8.68979051e+00 1.02651853e+01 1.21595055e+01
 4.80287500e+00 1.62450243e+01 1.44562063e+01
 8.23063530e+00 1.10772250e+01 1.22634899e+01
 6.67304246e+00 1.60304930e+01 1.01896193e+01
 4.50510088e+00 1.63128228e+01 1.47645914e+01
 3.18948076e+00 1.53761177e+01 1.82234327e+01
 7.40192695e+00 1.44106279e+01 1.04510202e+01
 4.29199292e+00 1.67055915e+01 1.47622073e+01
 6.75098615e+00 1.02378499e+01 1.64469717e+01
 4.25476102e+00 1.39857078e+01 1.82303492e+01
 7.45993464e+00 1.37431541e+01 1.11292900e+01
 8.09119799e+00 1.33897601e+01 1.07965296e+01
 3.66371305e+00 1.43535199e+01 1.83287029e+01
 5.24251764e+00 1.33330531e+01 1.64109673e+01
 4.64868048e+00 1.50990341e+01 1.57411994e+01
 6.27272620e+00 1.12863465e+01 1.60550588e+01
 6.87275751e+00 1.25962635e+01 1.35654411e+01
 8.01280214e+00 1.07828116e+01 1.27132879e+01
 4.36123246e+00 1.72778319e+01 1.40992656e+01
 3.23871704e+00 1.51881371e+01 1.81836820e+01
 4.99626744e+00 1.44685870e+01 1.58520335e+01
 5.70352427e+00 1.58390004e+01 1.28041089e+01
 7.73780740e+00 1.48038113e+01 1.00408062e+01
 6.15418583e+00 1.00209655e+01 1.72449831e+01
 2.78833800e+00 1.70828811e+01 1.74024667e+01
 5.21004083e+00 1.68898021e+01 1.28262013e+01
 4.05133834e+00 1.37958767e+01 1.82816876e+01
 3.73533865e+00 1.48703561e+01 1.76372216e+01
 6.72150114e+00 1.33875276e+01 1.32710552e+01
 5.73264832e+00 1.08795052e+01 1.81208489e+01
 5.30375726e+00 1.22636857e+01 1.73707950e+01
 3.77031823e+00 1.55197068e+01 1.73752249e+01
 6.51145086e+00 1.40071919e+01 1.33688767e+01
 5.47033348e+00 1.90157080e+01 1.04327746e+01
 7.21945350e+00 1.02234341e+01 1.51410479e+01
 4.24879808e+00 1.71657547e+01 1.46437479e+01
 8.48398081e+00 1.21882513e+01 1.06184646e+01
 5.28870239e+00 1.88220433e+01 1.05324555e+01
 5.73797776e+00 1.02882712e+01 1.81321545e+01
 5.62187014e+00 1.20312283e+01 1.69128568e+01
 6.43767457e+00 1.63648847e+01 1.08926875e+01
 5.00955042e+00 1.50595062e+01 1.51345695e+01
 4.87238415e+00 1.66630597e+01 1.36567526e+01
 9.13510564e+00 1.09894269e+01 1.04599371e+01
 6.37064755e+00 9.78309944e+00 1.74323509e+01
 2.84600091e+00 1.79122003e+01 1.64829375e+01
 3.74679670e+00 1.52672238e+01 1.71670987e+01
 3.91869758e+00 1.55362404e+01 1.66493422e+01
 7.47733387e+00 1.22366717e+01 1.29291891e+01
 7.99136807e+00 1.46192772e+01 9.98784242e+00
 5.24982172e+00 1.77978626e+01 1.17186458e+01
 4.44612667e+00 1.56513216e+01 1.56170383e+01
 5.76356523e+00 1.61781987e+01 1.24072439e+01
 4.80304459e+00 1.20850976e+01 1.84378450e+01
 5.70716100e+00 1.75818853e+01 1.11859705e+01
 5.11599130e+00 1.43606671e+01 1.53306141e+01
 6.31108858e+00 1.19586049e+01 1.46814290e+01
 4.79787397e+00 1.82181083e+01 1.19952288e+01
 9.17637614e+00 1.05181948e+01 1.10588962e+01
 6.32672305e+00 1.16456648e+01 1.62233730e+01
 5.72915419e+00 1.14938904e+01 1.68669399e+01
 5.16552838e+00 1.28420979e+01 1.69736867e+01
 5.64323340e+00 1.00263729e+01 1.82396721e+01
 4.32135322e+00 1.46906090e+01 1.70342159e+01
 6.20655914e+00 1.11859179e+01 1.63826338e+01
 8.36166566e+00 1.18343026e+01 1.15849305e+01
 5.00926109e+00 1.55671288e+01 1.44425644e+01
 6.18475217e+00 1.27591022e+01 1.50764001e+01
 4.42321294e+00 1.65230903e+01 1.44174197e+01
 3.75917450e+00 1.37456246e+01 1.85892769e+01
 5.41900819e+00 1.17701886e+01 1.75052558e+01
 9.48481168e+00 1.08761292e+01 1.05001464e+01
 5.44259650e+00 1.86571977e+01 1.01835365e+01
 6.60763527e+00 1.06873650e+01 1.60577071e+01
 3.71727511e+00 1.59678067e+01 1.66795200e+01
 9.71468757e+00 1.06434767e+01 1.02064237e+01
 6.21775428e+00 1.38137385e+01 1.37499080e+01
 8.61742492e+00 9.98082970e+00 1.25710372e+01
 4.46816613e+00 1.40984757e+01 1.71593158e+01
 7.22201445e+00 1.42173468e+01 1.07850392e+01
 5.95120515e+00 1.17264937e+01 1.60923707e+01
 5.26644447e+00 1.84679212e+01 1.08901967e+01
 5.20793104e+00 1.16887484e+01 1.78686262e+01
 8.70599574e+00 1.21070340e+01 1.06867535e+01
 6.96205439e+00 1.15387251e+01 1.45727774e+01
 5.62566228e+00 1.39561467e+01 1.45736850e+01
 4.82795835e+00 1.34883973e+01 1.63646325e+01
 6.77778111e+00 1.61735173e+01 1.04786183e+01
 4.52761757e+00 1.51518048e+01 1.58929161e+01
 4.73529839e+00 1.35847477e+01 1.72345783e+01
 8.10821888e+00 1.23075627e+01 1.17411090e+01
 6.21996515e+00 9.91752781e+00 1.77122998e+01
 6.36224218e+00 1.51287468e+01 1.23679318e+01
 6.72502224e+00 1.30932126e+01 1.36450795e+01
 6.12909675e+00 9.65435929e+00 1.79432622e+01
 5.37369749e+00 1.48009516e+01 1.42496835e+01
 7.52752818e+00 1.36142965e+01 1.11386074e+01
 8.05942384e+00 1.27918254e+01 1.12796301e+01
 4.09662772e+00 1.61445033e+01 1.54124131e+01
 8.22869882e+00 1.16553394e+01 1.18198275e+01
 4.37285563e+00 1.30939761e+01 1.79144400e+01
 3.70579812e+00 1.75140545e+01 1.49004274e+01
 4.96278541e+00 1.86153521e+01 1.12046743e+01
 7.32797140e+00 1.54153810e+01 9.56416599e+00
 5.29977148e+00 1.61457445e+01 1.34002292e+01
 6.01480374e+00 1.63390434e+01 1.15616121e+01
 8.44085216e+00 1.27226223e+01 1.03630163e+01
 5.73001928e+00 1.49596101e+01 1.35622994e+01
 5.55876878e+00 1.22848586e+01 1.64417039e+01
 5.35098958e+00 1.24897922e+01 1.69708625e+01
 6.57177133e+00 1.51877996e+01 1.16233462e+01
 7.17053929e+00 1.06100838e+01 1.48422812e+01
 7.57985613e+00 1.35768280e+01 1.16426193e+01
 7.09497965e+00 1.60020416e+01 9.74285500e+00
 8.77458628e+00 1.16339162e+01 1.10158354e+01
 7.94489626e+00 1.34850332e+01 1.03618500e+01
 7.42353937e+00 9.88122841e+00 1.54741458e+01
 5.46600871e+00 1.10883036e+01 1.82900423e+01
 7.45241181e+00 1.07496227e+01 1.40490486e+01
 7.43580439e+00 1.35003449e+01 1.17023811e+01
 5.72633139e+00 1.18955078e+01 1.64199043e+01
 3.34032644e+00 1.78769320e+01 1.52695288e+01
 3.85295307e+00 1.39034704e+01 1.85684041e+01
 4.58633560e+00 1.58632520e+01 1.48676928e+01
 7.61642700e+00 1.12374605e+01 1.33255345e+01
 8.14099276e+00 1.20445318e+01 1.19013337e+01
 3.55489636e+00 1.72159665e+01 1.57145898e+01
 4.03339238e+00 1.73050015e+01 1.44756695e+01
 8.68945530e+00 1.22675659e+01 1.05057618e+01
 4.27198743e+00 1.55355843e+01 1.61853994e+01
 3.55499888e+00 1.84771122e+01 1.42594796e+01
 5.55757908e+00 1.33458856e+01 1.54545245e+01
 5.25955101e+00 1.78885476e+01 1.15040260e+01
 2.24535123e+00 1.78533344e+01 1.78440246e+01
 6.14752317e+00 1.48372802e+01 1.33026437e+01
 9.00655852e+00 9.86211734e+00 1.16076267e+01
 2.45504024e+00 1.71432495e+01 1.81113619e+01
 6.34434596e+00 1.26840911e+01 1.50090372e+01
 6.11112301e+00 1.53004163e+01 1.29793501e+01
 5.87546700e+00 1.49046833e+01 1.33635497e+01
 6.64797112e+00 1.47297874e+01 1.20723563e+01
 8.32273983e+00 1.24272994e+01 1.12227121e+01
 5.88227069e+00 1.63204966e+01 1.18112269e+01
 7.20303298e+00 1.59140883e+01 9.66058996e+00
 6.43643859e+00 1.77267840e+01 9.37977645e+00
 5.50237923e+00 1.26991699e+01 1.63300900e+01
 7.31725954e+00 1.46016066e+01 1.04108545e+01
 6.52505335e+00 1.02054598e+01 1.66690502e+01
 8.73590431e+00 1.15990134e+01 1.10401516e+01
 4.93657018e+00 1.41946155e+01 1.63142841e+01
 5.08201849e+00 1.75751462e+01 1.27192743e+01
 7.23938020e+00 1.32230657e+01 1.23770856e+01
 6.93275083e+00 1.02600766e+01 1.56386224e+01
 7.93298013e+00 1.03273974e+01 1.40033553e+01
 4.63378593e+00 1.27586124e+01 1.76992132e+01
 2.39117903e+00 1.82317424e+01 1.69625372e+01
 6.05355034e+00 1.20853764e+01 1.58862656e+01
 6.48886080e+00 1.15812201e+01 1.55571903e+01
 5.65962204e+00 1.60536001e+01 1.27559886e+01
 6.06754768e+00 1.25020356e+01 1.49394406e+01
 2.53191895e+00 1.78484301e+01 1.74581967e+01
 5.26286676e+00 1.62563760e+01 1.33321087e+01
 6.30546694e+00 1.59237816e+01 1.10766932e+01
 5.33713654e+00 1.64132913e+01 1.28216956e+01
 5.41461769e+00 1.32272363e+01 1.57620933e+01
 4.78841528e+00 1.35555155e+01 1.67228748e+01
 4.97653901e+00 1.23225152e+01 1.78251080e+01
 8.81136916e+00 1.09450631e+01 1.17129053e+01
 6.25592524e+00 1.01526106e+01 1.71445465e+01
 7.59384546e+00 1.03809968e+01 1.43958323e+01
 6.47489748e+00 1.33690927e+01 1.34286269e+01
 8.73173401e+00 1.10544696e+01 1.14970112e+01
 3.16991533e+00 1.64636210e+01 1.69067722e+01
 5.23780620e+00 1.53305957e+01 1.39996570e+01
 6.59146768e+00 1.11024788e+01 1.55059609e+01
 7.81881338e+00 1.05750099e+01 1.42803717e+01
 6.60352228e+00 1.13986454e+01 1.52509905e+01
 8.94255133e+00 1.21246820e+01 9.81883859e+00
 4.83200506e+00 1.77557753e+01 1.23507292e+01
 7.34616062e+00 1.02724141e+01 1.47831674e+01
 3.16118220e+00 1.68400726e+01 1.68230242e+01
 7.81467256e+00 1.25945517e+01 1.15351360e+01
 7.51867222e+00 1.50452953e+01 9.88886288e+00
 7.38840800e+00 1.02003595e+01 1.47839773e+01
 5.51314817e+00 1.57891562e+01 1.31586503e+01
 4.33389911e+00 1.55799549e+01 1.61786738e+01
 3.61416689e+00 1.63367220e+01 1.67294184e+01
 8.35769362e+00 1.04859861e+01 1.25374975e+01
 3.10845935e+00 1.58266922e+01 1.79892226e+01
 5.64929175e+00 1.36448821e+01 1.48903390e+01
 5.34320663e+00 1.87070991e+01 1.04194378e+01
 2.28885426e+00 1.83638064e+01 1.72232886e+01
 6.02559938e+00 1.06140275e+01 1.71454136e+01
 4.77994817e+00 1.76454872e+01 1.29543214e+01
 8.50601837e+00 1.10675953e+01 1.23688666e+01
 4.52924065e+00 1.24265016e+01 1.82433716e+01
 7.95595911e+00 9.87472843e+00 1.41280563e+01
 8.04641163e+00 1.26776573e+01 1.14147967e+01
 6.82825623e+00 1.54423924e+01 1.06035360e+01
 7.21546365e+00 9.72918904e+00 1.61587167e+01
 5.59807550e+00 1.40071328e+01 1.49296834e+01
 7.34567611e+00 1.33611388e+01 1.20142145e+01
 7.90721551e+00 1.20858947e+01 1.19306553e+01
 7.28703142e+00 1.16317802e+01 1.37458627e+01
 5.90774867e+00 1.50953164e+01 1.26482726e+01
 4.92344884e+00 1.67087176e+01 1.33451948e+01
 4.28683347e+00 1.63948611e+01 1.49172624e+01
 5.11752647e+00 1.46309216e+01 1.50092122e+01
 7.90198867e+00 9.90170945e+00 1.40476088e+01
 6.63856260e+00 1.51113901e+01 1.13687979e+01
 5.14747730e+00 1.63378843e+01 1.34870047e+01
 6.16755934e+00 1.73252570e+01 1.04117689e+01
 5.96342240e+00 1.76209654e+01 1.05007260e+01
 6.54119420e+00 1.62954425e+01 1.08610785e+01
 4.79753911e+00 1.36510882e+01 1.70186142e+01
 6.69948132e+00 1.65452637e+01 9.80270371e+00
 5.68956506e+00 1.81182648e+01 1.03125319e+01
 5.28950022e+00 1.42508212e+01 1.51475453e+01
 8.47724418e+00 1.20888118e+01 1.11937861e+01
 3.86956141e+00 1.60379107e+01 1.60007580e+01
 4.96995478e+00 1.87396778e+01 1.12872582e+01
 4.85864231e+00 1.42137286e+01 1.60116884e+01
 6.03571235e+00 1.35958002e+01 1.43122052e+01
 5.64090106e+00 1.02036615e+01 1.84799928e+01
 6.28571851e+00 1.06128040e+01 1.67950927e+01
 7.84264454e+00 9.94383887e+00 1.42767424e+01
 7.45514469e+00 1.35616752e+01 1.19197469e+01
 6.29928146e+00 1.50591663e+01 1.25487658e+01
 5.11865225e+00 1.08086064e+01 1.86387811e+01
 3.32411164e+00 1.73828614e+01 1.63041278e+01
 4.88349342e+00 1.14869189e+01 1.83260121e+01
 4.37034220e+00 1.44677119e+01 1.62506806e+01
 6.31136104e+00 1.10145602e+01 1.62564717e+01
 3.78603432e+00 1.65037647e+01 1.62531167e+01
 7.92077205e+00 1.17934324e+01 1.22287778e+01
 5.77269333e+00 1.67818265e+01 1.16374206e+01
 6.42391567e+00 1.17037655e+01 1.48661474e+01
 5.91393247e+00 1.47130340e+01 1.33231875e+01
 7.24830491e+00 1.06091513e+01 1.45038563e+01
 6.41832168e+00 1.49409415e+01 1.22828673e+01
 6.21236924e+00 9.36261960e+00 1.84024559e+01
 5.59268826e+00 1.20415541e+01 1.65083264e+01
 8.53408422e+00 1.03114231e+01 1.21634075e+01
 5.19195032e+00 1.72669052e+01 1.25849631e+01
 8.72512234e+00 1.11493370e+01 1.11982430e+01
 2.90507949e+00 1.64863478e+01 1.76724579e+01
 7.14574525e+00 1.07811538e+01 1.45182544e+01
 8.41837361e+00 1.01768657e+01 1.27955043e+01
 5.06264834e+00 1.57034085e+01 1.42063658e+01
 3.00259158e+00 1.64501342e+01 1.76270038e+01
 6.73607886e+00 1.24521521e+01 1.42099356e+01
 5.98049117e+00 1.76093834e+01 9.83213578e+00
 5.32786197e+00 1.63562587e+01 1.28829512e+01
 5.06094037e+00 1.85891692e+01 1.11658886e+01
 2.90114147e+00 1.73901774e+01 1.68663612e+01
 6.65099634e+00 1.27286482e+01 1.35217560e+01
 9.75688250e+00 1.02390934e+01 9.87693081e+00
 4.86408461e+00 1.77929383e+01 1.24040012e+01
 5.54164652e+00 1.15979391e+01 1.73447837e+01
 4.53389883e+00 1.53754818e+01 1.60500097e+01
 2.46848681e+00 1.74599291e+01 1.77127145e+01
 7.58739899e+00 1.22203546e+01 1.25527654e+01
 5.33850645e+00 1.71868851e+01 1.22978148e+01
 7.42967238e+00 1.32664271e+01 1.19229878e+01
 5.60251082e+00 1.02705585e+01 1.88530413e+01
 3.94940961e+00 1.65664801e+01 1.54885675e+01
 4.62936552e+00 1.23263606e+01 1.85355993e+01
 4.96061608e+00 1.70899448e+01 1.38106962e+01
 5.08553194e+00 1.36370078e+01 1.61112323e+01
 7.35380428e+00 1.22448815e+01 1.30755168e+01
 5.17121651e+00 1.18375196e+01 1.78631361e+01
 5.98063485e+00 1.89387236e+01 9.34055882e+00
 6.43305610e+00 1.57393588e+01 1.12901446e+01
 6.06488566e+00 1.64919359e+01 1.16195655e+01
 7.25074711e+00 1.24618167e+01 1.30628287e+01
 3.82063865e+00 1.68427405e+01 1.58323785e+01
 7.72279945e+00 1.46410020e+01 1.02508984e+01
 5.40844846e+00 1.87576673e+01 1.09663206e+01
 5.63854498e+00 1.80137197e+01 1.07690399e+01
 5.66442153e+00 1.29206713e+01 1.57072296e+01
 7.40079296e+00 1.59485824e+01 9.45784757e+00
 4.86570699e+00 1.69025522e+01 1.31840315e+01
 7.46227539e+00 1.11827882e+01 1.39523997e+01
 5.05469712e+00 1.26515200e+01 1.73592267e+01
 4.96194336e+00 1.16485600e+01 1.84295804e+01
 2.67876957e+00 1.73002106e+01 1.70476564e+01
 8.54126104e+00 1.09408691e+01 1.20941667e+01
 6.57004654e+00 1.63123477e+01 1.06456589e+01
 7.32848755e+00 1.20751287e+01 1.32921357e+01
 6.81070794e+00 1.37064411e+01 1.27177009e+01
 8.19861913e+00 1.29021178e+01 1.09549918e+01
 8.67095358e+00 1.06871200e+01 1.21325395e+01
 6.69187862e+00 1.46617489e+01 1.15572317e+01
 5.41425153e+00 1.34893331e+01 1.57196318e+01
 5.83155223e+00 9.79651906e+00 1.86052786e+01
 6.16281991e+00 1.24585006e+01 1.50682211e+01
 8.72690241e+00 1.05314204e+01 1.24702315e+01
 3.24060825e+00 1.67874870e+01 1.67689047e+01
 4.08791919e+00 1.64362315e+01 1.54781669e+01
 6.77861520e+00 1.17573657e+01 1.48532479e+01
 3.77342135e+00 1.71883967e+01 1.56738041e+01
 3.67240652e+00 1.77938048e+01 1.44663152e+01
 4.95548677e+00 1.42227274e+01 1.60935511e+01
 6.01611783e+00 1.10751697e+01 1.74564023e+01
 6.37372979e+00 1.33661435e+01 1.40742474e+01
 3.90950725e+00 1.65887720e+01 1.57052839e+01
 4.61199863e+00 1.87350187e+01 1.21116299e+01
 3.79096557e+00 1.76503187e+01 1.46157412e+01
 8.56583617e+00 1.11804174e+01 1.16602110e+01
 2.96304319e+00 1.81256680e+01 1.58816695e+01
 3.71660869e+00 1.52791989e+01 1.71962559e+01
 4.61241602e+00 1.79906024e+01 1.28301153e+01
 7.06900811e+00 1.17627920e+01 1.41422345e+01
 8.17541557e+00 1.18256836e+01 1.16074532e+01
 8.36346992e+00 1.18923655e+01 1.18913613e+01
 8.95573530e+00 1.17526593e+01 1.06630547e+01
 8.42399047e+00 1.32262814e+01 9.97095596e+00
 3.47783170e+00 1.81237552e+01 1.46558276e+01
 8.12969756e+00 1.28606587e+01 1.12327420e+01
 6.50550901e+00 1.44921664e+01 1.22887127e+01
 4.61655540e+00 1.66704373e+01 1.38280510e+01
 6.78210718e+00 1.16107497e+01 1.51140118e+01
 4.89513445e+00 1.24655956e+01 1.75109845e+01
 3.68377057e+00 1.54703210e+01 1.75754336e+01
 3.82822113e+00 1.77495358e+01 1.47178288e+01
 5.31893388e+00 1.72820196e+01 1.19698674e+01
 5.05780136e+00 1.64222758e+01 1.33255303e+01
 7.57173709e+00 1.29499547e+01 1.18550905e+01
 5.78629538e+00 1.82575234e+01 9.99476651e+00
 5.67413986e+00 1.06523813e+01 1.79686261e+01
 5.42631087e+00 1.45627978e+01 1.44415227e+01
 7.00835946e+00 1.38629548e+01 1.18102948e+01
 4.74482462e+00 1.59354381e+01 1.46607183e+01
 5.22009768e+00 1.44725068e+01 1.51160758e+01
 5.68993687e+00 1.04607111e+01 1.80531866e+01
 6.06924748e+00 1.42026110e+01 1.33236044e+01
 5.40220517e+00 1.89029713e+01 1.03851405e+01
 6.18672844e+00 1.77042608e+01 9.93588610e+00
 2.43183345e+00 1.72360832e+01 1.77481978e+01
 3.89330959e+00 1.61847588e+01 1.57162569e+01
 5.29800817e+00 1.58780101e+01 1.30042088e+01
 6.81116974e+00 1.06779417e+01 1.59945120e+01
 6.60566185e+00 1.75645562e+01 9.78323094e+00
 4.59031331e+00 1.46116513e+01 1.63848569e+01
 6.53133345e+00 1.77848325e+01 9.11301277e+00
 6.19810231e+00 1.02444381e+01 1.71931091e+01
 8.47252746e+00 1.32199853e+01 9.77476444e+00
 8.12795420e+00 1.16910125e+01 1.16380265e+01
 5.34211198e+00 1.65568041e+01 1.28626346e+01
 9.67526387e+00 1.00541008e+01 1.03287400e+01
 7.45759171e+00 1.09687740e+01 1.41512717e+01
 9.09614491e+00 1.16737164e+01 1.02679067e+01
 5.66806585e+00 1.45966578e+01 1.34432252e+01
 4.95209093e+00 1.31371599e+01 1.67569361e+01
 6.68451533e+00 1.31185759e+01 1.36256701e+01
 8.08977230e+00 9.80705763e+00 1.40056236e+01
 3.70751043e+00 1.69134013e+01 1.57995879e+01
 5.53572238e+00 1.24198150e+01 1.64999903e+01
 7.28133751e+00 1.53657603e+01 1.00495270e+01
 7.27447324e+00 1.48130921e+01 1.05395316e+01
 6.80186421e+00 1.13790199e+01 1.47887982e+01
 8.53348266e+00 1.20218429e+01 1.07775458e+01
 4.90728494e+00 1.51568651e+01 1.49111183e+01
 6.02910428e+00 1.69044693e+01 1.11804385e+01
 6.59250923e+00 9.23902255e+00 1.71763479e+01
 4.89758684e+00 1.62779585e+01 1.42452082e+01
 3.73173856e+00 1.73218266e+01 1.54644232e+01
 5.21389747e+00 1.78709234e+01 1.15560442e+01
 6.23731335e+00 1.42730690e+01 1.30053356e+01
 9.32557080e+00 1.10749137e+01 1.02289462e+01
 5.16445196e+00 1.14855525e+01 1.82271754e+01
 4.28384053e+00 1.27871673e+01 1.87375879e+01
 7.81033950e+00 9.81207006e+00 1.48082061e+01
 8.62888335e+00 1.01362603e+01 1.27669451e+01
 6.66745823e+00 1.12920100e+01 1.51204776e+01
 6.29467581e+00 1.43896001e+01 1.31851923e+01
 3.74060833e+00 1.40215032e+01 1.78147429e+01
 5.08200003e+00 1.20439488e+01 1.73901183e+01
 5.89098814e+00 1.79904856e+01 1.03080782e+01
 6.91203416e+00 1.02469701e+01 1.59026542e+01
 3.65754217e+00 1.64333600e+01 1.58908732e+01
 6.19612795e+00 1.28905547e+01 1.47168779e+01
 8.13066292e+00 1.39412596e+01 9.52431000e+00
 4.02041352e+00 1.60658497e+01 1.57852693e+01
 6.63949134e+00 9.72827685e+00 1.70723387e+01
 5.27818185e+00 1.59847666e+01 1.33436892e+01
 6.43184769e+00 9.79230112e+00 1.72351524e+01
 6.53855258e+00 1.70411802e+01 1.00205786e+01
 7.02798925e+00 1.56183003e+01 1.04565730e+01
 9.29072085e+00 9.98335233e+00 1.11686244e+01
 9.47818546e+00 1.06031153e+01 1.07979287e+01
 6.37946635e+00 1.26586346e+01 1.42409937e+01
 7.38348340e+00 1.12248883e+01 1.40696158e+01
 4.27513073e+00 1.47601507e+01 1.65682270e+01
 3.51252926e+00 1.69594942e+01 1.59675403e+01
 5.65793417e+00 1.86400910e+01 9.61583487e+00
 4.92608137e+00 1.32381004e+01 1.70600966e+01
 4.09240032e+00 1.59291257e+01 1.58803123e+01
 5.75219323e+00 1.56616574e+01 1.30169195e+01
 7.05775556e+00 1.15684305e+01 1.43772766e+01
 4.46850146e+00 1.77171685e+01 1.35053804e+01
 6.74170089e+00 1.10228864e+01 1.55741429e+01
 4.17354675e+00 1.42267727e+01 1.81810163e+01
 5.99367152e+00 1.15681236e+01 1.65179523e+01
 4.95416643e+00 1.26419056e+01 1.75037878e+01
 5.20199170e+00 1.17015018e+01 1.78763694e+01
 4.84156906e+00 1.32374496e+01 1.77873503e+01
 6.60537870e+00 9.84114107e+00 1.71551387e+01
 7.08331227e+00 1.39626065e+01 1.16667326e+01
 3.58140652e+00 1.61358256e+01 1.65713386e+01
 8.70683437e+00 1.11355145e+01 1.15078111e+01
 4.44016311e+00 1.80735019e+01 1.28547961e+01
 8.19522346e+00 1.17176856e+01 1.22283823e+01
 6.69461938e+00 1.26589869e+01 1.39291308e+01
 6.41793545e+00 1.61852994e+01 1.07540329e+01
 5.26352222e+00 1.34616127e+01 1.56424586e+01
 5.03086234e+00 1.76133367e+01 1.25818164e+01
 4.51895808e+00 1.69837915e+01 1.39597048e+01
 3.36877785e+00 1.49121644e+01 1.78125444e+01
 5.42045121e+00 1.54875295e+01 1.36815236e+01
 7.96200469e+00 1.40650643e+01 1.02036926e+01
 8.50500779e+00 9.79244246e+00 1.31773818e+01
 3.30783804e+00 1.75574887e+01 1.55337257e+01
 4.26188926e+00 1.70862098e+01 1.40451434e+01
 6.66639340e+00 9.46208582e+00 1.74815239e+01
 4.02381264e+00 1.83424452e+01 1.40369189e+01
 5.47401398e+00 1.55075520e+01 1.37536994e+01
 6.57687801e+00 1.64844050e+01 1.03700912e+01
 6.82576640e+00 1.62206054e+01 1.04271354e+01
 8.08634965e+00 1.14328019e+01 1.23624071e+01
 7.45959013e+00 1.09019726e+01 1.45420561e+01
 7.09141087e+00 1.22976853e+01 1.29951376e+01
 6.39549067e+00 1.44804504e+01 1.29580401e+01
 5.44089322e+00 1.68363707e+01 1.20613525e+01
 4.63733471e+00 1.28180561e+01 1.82108075e+01
 4.25517026e+00 1.62775561e+01 1.49942726e+01
 7.79327650e+00 1.15377786e+01 1.30668003e+01
 7.04715868e+00 1.44735731e+01 1.10874854e+01
 9.05204452e+00 1.10139858e+01 1.11809087e+01
 2.28955983e+00 1.71396961e+01 1.79809508e+01
 5.51107911e+00 1.56927887e+01 1.34895262e+01
 6.42979610e+00 1.20156794e+01 1.52601710e+01
 7.19023681e+00 1.34053144e+01 1.20115777e+01
 7.59385466e+00 1.30265557e+01 1.18284244e+01
 3.01426768e+00 1.73056835e+01 1.61557630e+01
 3.48409110e+00 1.64054638e+01 1.61524847e+01
 5.34682254e+00 1.15270815e+01 1.72379157e+01
 4.67646430e+00 1.72742967e+01 1.27992962e+01
 8.46020853e+00 1.05679213e+01 1.30426211e+01
 5.90076281e+00 1.92928654e+01 9.27487774e+00
 7.13533747e+00 1.23558115e+01 1.29545893e+01
 7.45827361e+00 1.55433850e+01 9.82130629e+00
 3.92185164e+00 1.57134600e+01 1.67627058e+01
 5.53180440e+00 1.66665810e+01 1.25078633e+01
 5.27789348e+00 1.42459064e+01 1.53247164e+01
 4.41596194e+00 1.72370035e+01 1.40390661e+01
 5.93618240e+00 1.40313135e+01 1.40840708e+01
 5.96839460e+00 1.31980296e+01 1.50022644e+01
 5.34983565e+00 1.83248921e+01 1.09517802e+01
 5.37301757e+00 1.25039458e+01 1.66570438e+01
 2.08111534e+00 1.80119964e+01 1.80627594e+01
 2.68256688e+00 1.66918553e+01 1.77674822e+01
 5.05132188e+00 1.81091967e+01 1.15545292e+01
 4.68038764e+00 1.18417830e+01 1.89737250e+01
 6.30297605e+00 1.80249203e+01 9.60895760e+00
 5.26395125e+00 1.80187433e+01 1.13317733e+01
 3.35674279e+00 1.71319024e+01 1.58919893e+01
 7.47293862e+00 1.08801083e+01 1.38306173e+01
 7.46998361e+00 1.50233277e+01 9.89704157e+00
 5.82290154e+00 1.27695151e+01 1.53983178e+01
 7.66806528e+00 1.24697263e+01 1.22551090e+01
 7.06581687e+00 1.36964585e+01 1.19806659e+01
 7.55712733e+00 1.05086992e+01 1.44600037e+01
 8.95164677e+00 1.05018909e+01 1.10645107e+01
 2.19203108e+00 1.78456530e+01 1.79560718e+01
 7.96018114e+00 1.07422882e+01 1.35122921e+01
 2.87337919e+00 1.69325933e+01 1.72146789e+01
 7.54719501e+00 1.08044018e+01 1.44016295e+01
 5.42764883e+00 1.16679258e+01 1.73622552e+01
 4.40521796e+00 1.74809893e+01 1.38308134e+01
 2.80044453e+00 1.82188259e+01 1.64448801e+01
 3.76309827e+00 1.51933249e+01 1.74078605e+01
 3.64147404e+00 1.56539472e+01 1.71476939e+01
 3.03029282e+00 1.81709935e+01 1.62396858e+01
 7.47725632e+00 1.49356214e+01 1.00276371e+01
 4.53638454e+00 1.23524964e+01 1.86695376e+01
 6.90289279e+00 9.40837451e+00 1.68886801e+01
 8.33618811e+00 1.01448477e+01 1.32598620e+01
 4.20930634e+00 1.27793090e+01 1.86837401e+01
 5.30192534e+00 1.83955116e+01 1.12242681e+01
 4.44363118e+00 1.85564069e+01 1.27405912e+01
 2.70027057e+00 1.77333693e+01 1.69958632e+01
 8.40773575e+00 1.05831709e+01 1.31366987e+01
 5.68745445e+00 1.21440413e+01 1.65484188e+01
 3.01064744e+00 1.53571217e+01 1.83368738e+01
 7.11947883e+00 1.25939540e+01 1.30884835e+01
 5.84993681e+00 1.58079608e+01 1.21955946e+01
 6.18991827e+00 1.44884540e+01 1.31381968e+01
 4.90164363e+00 1.49735512e+01 1.52752151e+01
 8.02599853e+00 9.82570246e+00 1.41753815e+01
 8.45769595e+00 1.19497751e+01 1.12620457e+01
 2.35951507e+00 1.79417762e+01 1.69708070e+01
 5.19483600e+00 1.27025008e+01 1.64409547e+01
 5.97351525e+00 1.12815593e+01 1.69987925e+01
 5.74899461e+00 1.85218000e+01 9.89229742e+00
 5.55506882e+00 1.22512312e+01 1.68564773e+01
 5.64368033e+00 1.17958093e+01 1.67999474e+01
 6.33622422e+00 1.05973897e+01 1.64144745e+01
 2.51660817e+00 1.68810005e+01 1.81092545e+01
 7.49317223e+00 1.27562226e+01 1.22510027e+01
 5.75444090e+00 1.37063165e+01 1.51225209e+01
 7.13769986e+00 9.83430505e+00 1.58285667e+01
 4.12781819e+00 1.39948920e+01 1.74431652e+01
 8.39831369e+00 9.95745582e+00 1.29093390e+01
 9.20822193e+00 1.23178623e+01 9.82050191e+00
 5.04187906e+00 1.62977819e+01 1.34164938e+01
 6.18684056e+00 1.83988463e+01 9.48710242e+00
 6.38171669e+00 1.25978722e+01 1.45591951e+01
 8.72277525e+00 1.19590094e+01 1.03197283e+01
 7.53506817e+00 1.05975716e+01 1.42525008e+01
 7.98424611e+00 1.10879330e+01 1.26394257e+01
 8.63590966e+00 1.14613418e+01 1.16203953e+01
 3.60412735e+00 1.79358816e+01 1.52850650e+01
 5.42822470e+00 1.39731899e+01 1.53385383e+01
 8.70899987e+00 9.91090546e+00 1.26492024e+01
 6.77636811e+00 1.47267162e+01 1.21285538e+01
 4.82339474e+00 1.48697143e+01 1.51472630e+01
 3.54947536e+00 1.63080906e+01 1.70147518e+01
 7.41877592e+00 1.19085108e+01 1.32050888e+01
 4.61974284e+00 1.33333376e+01 1.78679012e+01
 2.80089632e+00 1.70643008e+01 1.74700085e+01
 5.62476954e+00 1.47442850e+01 1.40413157e+01
 4.58145024e+00 1.35688794e+01 1.68945348e+01
 4.85858929e+00 1.78214548e+01 1.26119891e+01
 3.12812167e+00 1.53308481e+01 1.83472492e+01
 3.31325875e+00 1.73129856e+01 1.64906219e+01
 6.64587077e+00 1.70728022e+01 9.52326009e+00
 4.75085400e+00 1.84742895e+01 1.20218876e+01
 6.17134470e+00 1.44028098e+01 1.28314288e+01
 4.37984718e+00 1.67269314e+01 1.47528716e+01
 5.68482756e+00 1.14320798e+01 1.70897143e+01
 4.18802471e+00 1.69267200e+01 1.47801488e+01
 5.93179648e+00 1.69255766e+01 1.08650572e+01
 4.88744961e+00 1.52784325e+01 1.50741288e+01
 7.96347454e+00 9.61941684e+00 1.40632020e+01
 6.73806186e+00 1.18145797e+01 1.48058115e+01
 6.76564591e+00 1.44183878e+01 1.22741626e+01
 2.72958025e+00 1.78218951e+01 1.70107093e+01
 3.42489684e+00 1.82362800e+01 1.49033373e+01
 4.69227614e+00 1.46898255e+01 1.62452791e+01
 8.70764097e+00 1.12948964e+01 1.15421161e+01
 8.99248885e+00 1.16529390e+01 1.06635315e+01
 8.88552930e+00 9.76476426e+00 1.23546350e+01
 5.12075149e+00 1.44847441e+01 1.53046029e+01
 2.73493338e+00 1.59500616e+01 1.84267134e+01
 6.55626451e+00 1.20958381e+01 1.45380045e+01
 5.22132310e+00 1.88704229e+01 1.07559435e+01
 7.03322757e+00 1.59729146e+01 1.00294579e+01
 4.12197651e+00 1.39229066e+01 1.77887788e+01
 6.33591953e+00 1.04805758e+01 1.67264060e+01
 6.37373679e+00 1.12117173e+01 1.59538676e+01
 9.46634241e+00 1.14003426e+01 1.01170316e+01
 4.91449655e+00 1.83975652e+01 1.15203051e+01
 9.15793516e+00 1.01177204e+01 1.21895923e+01
 5.61878331e+00 1.11787105e+01 1.74287665e+01
 6.04344047e+00 1.40035813e+01 1.37643476e+01
 4.24387039e+00 1.71902145e+01 1.41125644e+01
 4.23968522e+00 1.57265513e+01 1.61590847e+01
 5.58670846e+00 1.77843216e+01 1.12756657e+01
 7.04575005e+00 1.08546934e+01 1.46354010e+01
 6.23189050e+00 1.46950524e+01 1.29985658e+01
 4.45630530e+00 1.64000274e+01 1.47261035e+01
 7.00375537e+00 1.07836838e+01 1.46890738e+01
 6.40448059e+00 1.25830987e+01 1.48020835e+01
 5.88582568e+00 1.23341051e+01 1.55701522e+01
 5.83157364e+00 1.25317535e+01 1.57662149e+01
 4.86840765e+00 1.83107556e+01 1.18414945e+01
 4.86065557e+00 1.86688312e+01 1.14875683e+01
 9.02103268e+00 1.20689035e+01 1.02543584e+01
 6.30494711e+00 1.54252282e+01 1.19070549e+01
 6.22277871e+00 1.08659246e+01 1.67779367e+01
 6.79364793e+00 1.44291613e+01 1.20636467e+01
 5.06497831e+00 1.70065738e+01 1.29010879e+01
 2.56200488e+00 1.66770660e+01 1.83779239e+01
 3.75947465e+00 1.76023896e+01 1.47138268e+01
 8.90756741e+00 1.04050181e+01 1.16963266e+01
 9.09855655e+00 1.08786037e+01 1.09810330e+01
 6.89484237e+00 1.62405282e+01 1.01986505e+01
 7.41443340e+00 1.14806209e+01 1.40396724e+01
 3.48369388e+00 1.56375712e+01 1.69923828e+01
 7.51082942e+00 1.47864103e+01 1.05288046e+01
 7.88978073e+00 1.40119713e+01 9.87977376e+00
 6.50343704e+00 1.45693107e+01 1.24570837e+01
 8.32551613e+00 1.25767894e+01 1.06157447e+01
 5.94899628e+00 1.24640547e+01 1.52516149e+01
 5.58505259e+00 1.60304908e+01 1.26576358e+01
 7.51416541e+00 1.07042301e+01 1.44539873e+01
 8.06075119e+00 1.04258596e+01 1.34978197e+01
 5.02565663e+00 1.14907005e+01 1.81767043e+01
 7.22643216e+00 1.23198071e+01 1.31505413e+01
 7.47983413e+00 1.56597266e+01 9.33546756e+00
 3.95025015e+00 1.55724788e+01 1.62248441e+01
 5.58778918e+00 1.31145123e+01 1.57642316e+01
 4.66625096e+00 1.26239416e+01 1.79587452e+01
 7.59448175e+00 1.02154065e+01 1.44154595e+01
 4.07933472e+00 1.77175486e+01 1.44621864e+01
 3.51620863e+00 1.67600301e+01 1.61973341e+01
 3.39308716e+00 1.68855543e+01 1.65348575e+01
 4.56784560e+00 1.48182761e+01 1.68655513e+01
 6.25916264e+00 1.59760027e+01 1.17026966e+01
 6.03887201e+00 1.40805814e+01 1.35943196e+01
 4.91873972e+00 1.31887056e+01 1.69807239e+01
 5.81039769e+00 1.11739197e+01 1.72441708e+01
 6.65811223e+00 1.12691664e+01 1.53431919e+01
 6.84943844e+00 1.18260567e+01 1.45770870e+01
 6.21969859e+00 1.40632969e+01 1.35151092e+01
 3.99672354e+00 1.76652165e+01 1.41700474e+01
 4.29131748e+00 1.46111727e+01 1.72467679e+01
 5.30739008e+00 1.79425982e+01 1.16854570e+01
 7.24954912e+00 1.02653024e+01 1.52081034e+01
 7.24274249e+00 1.07512035e+01 1.43454457e+01
 5.42157526e+00 1.27664453e+01 1.65660728e+01
 5.52683241e+00 1.77280405e+01 1.09984943e+01
 8.76648015e+00 1.14164354e+01 1.09434229e+01
 6.40775721e+00 1.24289309e+01 1.43633271e+01
 6.39364993e+00 1.70866906e+01 1.02938212e+01
 5.28034626e+00 1.24268810e+01 1.70992227e+01
 5.35885822e+00 1.48688691e+01 1.42660077e+01
 4.55435386e+00 1.39723660e+01 1.72660757e+01
 8.59286913e+00 1.23353392e+01 1.07277298e+01
 3.80653447e+00 1.86321411e+01 1.37304567e+01
 3.10626584e+00 1.78884122e+01 1.59472565e+01
 3.24584183e+00 1.71065903e+01 1.60237055e+01
 8.70475580e+00 1.06714913e+01 1.19824380e+01
 3.11842026e+00 1.60620448e+01 1.81948852e+01
 3.51360143e+00 1.52505772e+01 1.79091066e+01
 7.69620911e+00 1.21320656e+01 1.20964867e+01
 4.81844590e+00 1.49477624e+01 1.54591265e+01
 7.18692384e+00 1.50641818e+01 1.05879119e+01
 5.43551760e+00 1.86609148e+01 1.01786040e+01
 7.79311447e+00 1.47652485e+01 9.85494149e+00
 5.18006353e+00 1.30329875e+01 1.62443734e+01
 7.66862168e+00 1.20778567e+01 1.26658315e+01
 3.55125786e+00 1.70458323e+01 1.55816346e+01
 5.65715350e+00 1.48479826e+01 1.34810220e+01
 4.98759546e+00 1.51781583e+01 1.47245061e+01
 6.48633128e+00 9.66504493e+00 1.68902463e+01
 5.99268608e+00 1.18867617e+01 1.61948566e+01
 7.27332958e+00 1.56227487e+01 9.83400641e+00
 6.47085081e+00 1.13634659e+01 1.54010038e+01
 6.16102286e+00 1.31222447e+01 1.46222510e+01
 6.75535668e+00 1.38654058e+01 1.26233868e+01
 5.06710463e+00 1.84418643e+01 1.11398495e+01
 6.75593631e+00 1.51631451e+01 1.16337722e+01
 8.19021371e+00 1.31735483e+01 1.04191345e+01
 3.38007636e+00 1.60912355e+01 1.72856160e+01
 4.87498917e+00 1.25839184e+01 1.73117461e+01
 4.98779700e+00 1.21610347e+01 1.79088801e+01
 7.55378682e+00 1.33240649e+01 1.19610478e+01
 9.33834264e+00 1.05459884e+01 1.04911539e+01
 6.13988595e+00 1.50221814e+01 1.29860979e+01
 8.00242381e+00 1.12103330e+01 1.29856720e+01
 6.86990523e+00 1.45764576e+01 1.14108195e+01
 7.05493336e+00 9.88303861e+00 1.57415905e+01
 8.75943643e+00 1.21308012e+01 1.06757746e+01
 6.03307466e+00 1.14952624e+01 1.67162729e+01
 3.22728134e+00 1.82604629e+01 1.52710494e+01
 2.81785463e+00 1.76095429e+01 1.64830941e+01
 9.56350592e+00 1.03856328e+01 1.01243759e+01
 7.76904374e+00 1.30481570e+01 1.15396791e+01
 6.55984926e+00 1.03288642e+01 1.65826992e+01
 6.99826635e+00 1.55631928e+01 1.05657774e+01
 7.68077439e+00 1.29978519e+01 1.15762988e+01
 4.59900539e+00 1.44934850e+01 1.58508608e+01
 5.68902565e+00 1.02958468e+01 1.82713203e+01
 3.02977482e+00 1.81189260e+01 1.53276587e+01
 5.64180746e+00 1.25696000e+01 1.58693977e+01
 7.25110491e+00 9.61830781e+00 1.59202855e+01
 5.10858615e+00 1.35720779e+01 1.64727958e+01
 7.01255457e+00 1.21753966e+01 1.39531760e+01
 9.30719330e+00 1.14118680e+01 9.81291551e+00
 7.15472367e+00 1.42033451e+01 1.12957819e+01
 8.26442369e+00 1.03411792e+01 1.31918720e+01
 4.68356983e+00 1.28424347e+01 1.72144242e+01
 3.42050695e+00 1.53484618e+01 1.78257744e+01
 7.33567679e+00 1.53260071e+01 1.02442202e+01
 6.37854763e+00 1.25739167e+01 1.47387272e+01
 2.19794207e+00 1.77157998e+01 1.76625551e+01
 3.80805768e+00 1.82842231e+01 1.40890741e+01
 7.06743762e+00 1.30562328e+01 1.28166768e+01
 3.70978576e+00 1.43679582e+01 1.79760420e+01
 7.65294831e+00 1.30437417e+01 1.16801049e+01
 9.35258638e+00 1.07545236e+01 1.05374333e+01
 5.83037975e+00 1.73089237e+01 1.10830615e+01
 5.58560213e+00 1.53321286e+01 1.36064915e+01
 6.12651744e+00 1.54264158e+01 1.22727897e+01
 4.84795182e+00 1.80226679e+01 1.26148398e+01
 5.97260038e+00 1.58715258e+01 1.25555152e+01
 6.22611565e+00 1.67238804e+01 1.05510372e+01
 6.09326671e+00 1.72513866e+01 1.08555768e+01
 2.79050940e+00 1.75101721e+01 1.67523754e+01
 3.72590010e+00 1.80844514e+01 1.44608297e+01
 6.60068057e+00 1.29248309e+01 1.38702199e+01
 7.01975072e+00 1.48743712e+01 1.07523639e+01
 5.11877453e+00 1.73346044e+01 1.23099177e+01
 4.13089694e+00 1.48639886e+01 1.69920466e+01
 6.51025445e+00 1.48637514e+01 1.19867555e+01
 6.13096986e+00 1.40705787e+01 1.43427640e+01
 9.43727081e+00 1.14740984e+01 9.85064645e+00
 5.83141751e+00 1.85709487e+01 9.76908444e+00
 6.75730155e+00 1.63706979e+01 1.01651244e+01
 7.04790049e+00 1.08682515e+01 1.51563669e+01
 5.03239224e+00 1.46091518e+01 1.52003065e+01
 7.63053533e+00 1.00306700e+01 1.44366772e+01
 6.70802197e+00 1.48389918e+01 1.20434251e+01
 3.77382429e+00 1.72367729e+01 1.49982885e+01
 5.49030988e+00 1.74736222e+01 1.18444718e+01
 7.59785399e+00 1.11884541e+01 1.34781828e+01
 8.27066524e+00 1.09816085e+01 1.22329747e+01
 5.42107121e+00 1.24748392e+01 1.67281128e+01
 4.64383155e+00 1.24720897e+01 1.78526576e+01
 7.07976701e+00 1.18114151e+01 1.39178711e+01
 6.95107223e+00 1.22262338e+01 1.38933981e+01
 6.19233825e+00 1.11959489e+01 1.64186760e+01
 7.82374420e+00 1.05506922e+01 1.37133564e+01
 4.04253671e+00 1.77051036e+01 1.43627852e+01
 6.18458515e+00 1.02876937e+01 1.77958000e+01
 9.02204229e+00 1.07547660e+01 1.13618627e+01
 8.97069865e+00 1.25307370e+01 9.78849453e+00
 5.08511041e+00 1.82171039e+01 1.16160185e+01
 6.45381859e+00 1.63869188e+01 1.10194976e+01
 4.27491696e+00 1.36328173e+01 1.77833803e+01
 6.25309616e+00 1.52256439e+01 1.20682060e+01
 7.63038920e+00 1.04763440e+01 1.46313463e+01
 6.69257629e+00 1.05980050e+01 1.56913505e+01
 8.51142042e+00 1.12299240e+01 1.13997630e+01
 5.93547159e+00 1.14456275e+01 1.65689088e+01
 5.00728279e+00 1.67454895e+01 1.33452772e+01
 6.81547165e+00 1.46935467e+01 1.18275371e+01
 7.31925741e+00 1.58316618e+01 9.41866768e+00
 6.81990351e+00 1.04862304e+01 1.57778785e+01
 8.64915295e+00 1.17512498e+01 1.08540963e+01
 5.91128529e+00 9.43384372e+00 1.84255473e+01
 7.41734591e+00 1.37083518e+01 1.19216085e+01
 5.03184007e+00 1.10142756e+01 1.86084912e+01
 6.12781568e+00 1.00378216e+01 1.72269182e+01
 4.77678772e+00 1.72692316e+01 1.32509509e+01
 7.65819681e+00 1.44595683e+01 1.00901275e+01
 6.96870490e+00 1.15811613e+01 1.45896081e+01
 7.90492256e+00 1.12083244e+01 1.22992124e+01
 3.54051058e+00 1.48099829e+01 1.80502063e+01
 4.51998387e+00 1.85026217e+01 1.22822593e+01
 5.46663030e+00 1.78084665e+01 1.12020016e+01
 5.11948169e+00 1.21119101e+01 1.74939720e+01
 6.77774747e+00 1.28362735e+01 1.36378618e+01
 8.25311904e+00 1.19712237e+01 1.11277087e+01
 5.66088155e+00 1.80423902e+01 1.07575087e+01
 4.34060858e+00 1.36539165e+01 1.77311242e+01
 3.16732125e+00 1.78654682e+01 1.56228534e+01
 5.95029142e+00 1.46325720e+01 1.36137334e+01
 3.30750798e+00 1.59523303e+01 1.71327559e+01
 8.14959201e+00 1.12369035e+01 1.25180749e+01
 6.34362966e+00 1.54450551e+01 1.17882010e+01
 6.94237685e+00 1.28108833e+01 1.35255297e+01
 8.92827733e+00 9.92942137e+00 1.20482840e+01
 7.09495524e+00 1.09963344e+01 1.47093121e+01
 3.79096586e+00 1.46534440e+01 1.82436505e+01
 4.95796350e+00 1.54300555e+01 1.47727967e+01
 5.72645097e+00 1.71854651e+01 1.12772575e+01
 6.99235135e+00 1.30640571e+01 1.31824230e+01
 7.62515312e+00 1.16673947e+01 1.33481995e+01
 7.67993342e+00 1.15859444e+01 1.27958840e+01
 4.87575448e+00 1.51195844e+01 1.53397760e+01
 4.21227456e+00 1.80796105e+01 1.33722165e+01
 3.41305365e+00 1.43008730e+01 1.84117749e+01
 7.32350565e+00 9.42399745e+00 1.61060147e+01
 6.53137138e+00 9.80175318e+00 1.73442680e+01
 9.04660224e+00 1.01414689e+01 1.17470466e+01
 5.90529894e+00 1.11667654e+01 1.69398768e+01
 2.27354771e+00 1.74649872e+01 1.82990030e+01
 5.77424819e+00 1.70441076e+01 1.12831069e+01
 6.16609681e+00 1.28162190e+01 1.46003267e+01
 5.07433283e+00 1.79671030e+01 1.17858663e+01
 5.16218657e+00 1.23006303e+01 1.75450995e+01
 5.39325640e+00 1.08606922e+01 1.85875925e+01
 8.50671488e+00 1.11595444e+01 1.16700929e+01
 5.01179160e+00 1.48735082e+01 1.44835944e+01
 5.40007116e+00 1.13124918e+01 1.78913302e+01
 8.02782665e+00 1.38105938e+01 1.02061165e+01
 7.61711559e+00 1.11398641e+01 1.39418004e+01
 3.88809514e+00 1.40597640e+01 1.79822378e+01
 5.69663380e+00 1.08626689e+01 1.77742077e+01
 3.16868924e+00 1.80847196e+01 1.56907106e+01
 7.89483960e+00 1.23815996e+01 1.20627970e+01
 2.44849627e+00 1.75509496e+01 1.74638704e+01
 4.04340590e+00 1.59655563e+01 1.57176990e+01
 3.45802675e+00 1.78313839e+01 1.54509993e+01
 7.33644010e+00 1.16059307e+01 1.37907061e+01
 4.95771292e+00 1.86465188e+01 1.12886093e+01
 5.43211271e+00 1.41827001e+01 1.49146773e+01
 6.34934697e+00 1.61063245e+01 1.08940007e+01
 3.80729865e+00 1.55017226e+01 1.68848463e+01
 5.37633131e+00 1.09191224e+01 1.80653026e+01
 5.54897163e+00 1.32613582e+01 1.57707643e+01
 4.72152888e+00 1.51138419e+01 1.53678286e+01
 5.37984618e+00 1.62312749e+01 1.33224588e+01
 5.55429647e+00 1.32560288e+01 1.57804967e+01
 6.92308621e+00 1.02557223e+01 1.61288863e+01
 5.81323041e+00 1.29997208e+01 1.57199030e+01
 3.13211676e+00 1.82867478e+01 1.58800477e+01
 6.10322784e+00 1.06276792e+01 1.71036592e+01
 7.33322411e+00 1.36312908e+01 1.21713510e+01
 4.16793526e+00 1.38294098e+01 1.75688649e+01
 5.08424111e+00 1.31215984e+01 1.64595957e+01
 5.22826054e+00 1.77121145e+01 1.22447337e+01
 4.91246900e+00 1.78583695e+01 1.20144743e+01
 6.14872896e+00 1.47089762e+01 1.30249994e+01
 5.42205665e+00 1.71576375e+01 1.21838274e+01
 5.18362917e+00 1.33182044e+01 1.61535537e+01
 5.75158655e+00 1.23173934e+01 1.60707927e+01
 2.15782954e+00 1.79680776e+01 1.78489609e+01
 5.54288499e+00 1.63620346e+01 1.27435430e+01
 5.82726475e+00 1.61525899e+01 1.22832816e+01
 6.26233170e+00 1.79226408e+01 9.42557605e+00
 6.73200973e+00 1.38306660e+01 1.24821116e+01
 6.12841222e+00 9.76690492e+00 1.76762000e+01
 7.53098937e+00 9.69633140e+00 1.53449018e+01
 7.10929391e+00 1.66244459e+01 9.37243442e+00
 8.46784398e+00 9.80586007e+00 1.33733207e+01
 6.35371800e+00 1.25912314e+01 1.52397944e+01
 2.98511413e+00 1.75001782e+01 1.69242477e+01
 3.68290992e+00 1.40804448e+01 1.85775257e+01
 3.01087416e+00 1.81969961e+01 1.56016803e+01
 5.89145965e+00 9.94261028e+00 1.80937348e+01
 8.04704709e+00 1.12057272e+01 1.23978036e+01
 7.47232503e+00 1.07984893e+01 1.40405765e+01
 5.94157053e+00 1.54934469e+01 1.26531588e+01
 4.03621713e+00 1.36327255e+01 1.79350736e+01
 3.89753099e+00 1.60980293e+01 1.60019313e+01
 8.16022291e+00 1.16394429e+01 1.23926262e+01
 6.41875625e+00 1.60059001e+01 1.15501284e+01
 7.83744251e+00 1.08643985e+01 1.36716820e+01
 5.91286041e+00 1.66652494e+01 1.17562683e+01
 4.65934747e+00 1.47613361e+01 1.60558502e+01
 4.51328125e+00 1.80613697e+01 1.26963812e+01
 4.42984247e+00 1.24162957e+01 1.86881214e+01
 7.91882324e+00 1.02219619e+01 1.42599950e+01
 7.64134262e+00 1.09697381e+01 1.35803293e+01
 3.00739432e+00 1.63447492e+01 1.76509820e+01
 6.06622206e+00 9.44266090e+00 1.86027995e+01
 6.07603659e+00 1.47359628e+01 1.30017888e+01
 4.10232985e+00 1.77451523e+01 1.36735964e+01
 6.78430039e+00 1.04004056e+01 1.64716048e+01
 5.62737795e+00 1.74966201e+01 1.11807640e+01
 7.01642774e+00 1.29590311e+01 1.32117760e+01
 2.95960258e+00 1.78325381e+01 1.65235522e+01
 5.47978063e+00 1.60499282e+01 1.30797148e+01
 8.88035345e+00 1.06557468e+01 1.14356017e+01
 8.64612588e+00 1.10684459e+01 1.17169634e+01
 5.66919327e+00 1.49631582e+01 1.34583285e+01
 5.32005622e+00 1.29569570e+01 1.66309168e+01
 3.50081376e+00 1.60623369e+01 1.69462138e+01
 2.31747253e+00 1.82090194e+01 1.74038260e+01
 6.09246844e+00 1.45867166e+01 1.31996013e+01
 4.92015203e+00 1.22954635e+01 1.77039071e+01
 7.17529586e+00 1.62681477e+01 9.45488521e+00
 7.14911638e+00 1.55750782e+01 1.03908212e+01
 4.35460740e+00 1.31267206e+01 1.82557185e+01
 5.21591080e+00 1.77721447e+01 1.19044071e+01
 5.42541786e+00 1.33257301e+01 1.57228080e+01
 5.73726980e+00 1.46394342e+01 1.38561647e+01
 4.84364076e+00 1.30753000e+01 1.73486174e+01
 6.33633544e+00 1.60705856e+01 1.12881944e+01
 5.86139262e+00 1.59774307e+01 1.22848800e+01
 6.46757167e+00 1.71471352e+01 9.68477770e+00
 2.05109675e+00 1.79449681e+01 1.78994843e+01
 3.57512059e+00 1.73953001e+01 1.56607114e+01
 5.42544896e+00 1.84138817e+01 1.07928729e+01
 6.58137325e+00 1.55885268e+01 1.13272740e+01
 2.64290708e+00 1.77457346e+01 1.66951062e+01
 8.64152087e+00 1.25329147e+01 1.03055907e+01
 6.01846827e+00 1.67865729e+01 1.12335393e+01
 5.18076487e+00 1.68522302e+01 1.26289277e+01
 4.23178445e+00 1.64818829e+01 1.45799137e+01
 5.96016296e+00 1.84614703e+01 9.16777429e+00
 3.43424705e+00 1.79641186e+01 1.51762620e+01
 8.55227157e+00 1.18041181e+01 1.09592284e+01
 6.34702704e+00 1.25385890e+01 1.51443490e+01
 5.55456958e+00 1.63911229e+01 1.21099276e+01
 4.70041533e+00 1.72025366e+01 1.34936654e+01
 7.49382902e+00 1.27668648e+01 1.22168106e+01
 3.65572083e+00 1.41870496e+01 1.86110617e+01
 8.33718617e+00 1.04858491e+01 1.30439672e+01
 6.49977949e+00 1.11508487e+01 1.59202613e+01
 3.87330035e+00 1.86974432e+01 1.44524010e+01
 1.21597168e+00 1.66985817e+01 1.61199357e+01
 4.82789448e+00 1.65801389e+01 1.88973983e+01
 7.55319055e+00 9.63221799e+00 1.63795761e+01
 2.88316715e+00 1.43881187e+01 9.19819208e+00
 1.80384177e+00 1.08369805e+01 1.19570543e+01
 8.08218293e+00 1.18003279e+01 9.78671306e+00
 8.36334507e+00 9.15223776e+00 1.59063114e+01
 2.65501566e+00 1.05061040e+01 1.15901467e+01
 8.29938483e-01 1.02286614e+01 1.05640281e+01
 6.73551755e+00 9.56485632e+00 1.35053063e+01
 1.02077259e+01 9.81138948e+00 1.28674186e+01
 3.72027102e+00 1.73182276e+01 1.74213015e+01
 3.86719426e+00 1.81951901e+01 1.10042060e+01
 4.74151788e+00 1.05388635e+01 1.06143428e+01
 5.46831280e+00 1.51690169e+01 1.15410956e+01
 3.21563267e+00 1.25097118e+01 1.03545896e+01
 7.25132990e+00 1.61220374e+01 1.51278113e+01
 8.51755596e+00 1.71740011e+01 1.26021638e+01
 9.20736365e+00 9.63461374e+00 1.20657968e+01
 4.50135570e+00 1.00341082e+01 1.22092007e+01
 8.02742000e+00 1.25469066e+01 1.71523563e+01
 9.72396338e+00 1.89021274e+01 1.48822844e+01
 6.59293218e+00 1.59915489e+01 9.84666915e+00
 4.97760889e+00 1.48646457e+01 1.88479720e+01
 5.76173570e+00 1.23219215e+01 1.84227591e+01
 3.92686996e+00 1.11812063e+01 1.75058984e+01
 9.67114497e-01 1.73712846e+01 1.91052322e+01
 5.99592400e+00 1.30319669e+01 1.42765410e+01
 2.78922974e+00 9.14717078e+00 1.48123655e+01
 5.62438800e+00 1.83388845e+01 1.24847232e+01
 7.56612391e+00 1.15300738e+01 1.58335880e+01
 5.99532623e+00 1.06206328e+01 1.26119726e+01
 1.53705626e+00 1.31576705e+01 1.74849209e+01
 8.54027961e+00 8.90619719e+00 1.25582058e+01
 3.82405618e+00 1.63713457e+01 1.08309127e+01
 1.33686447e+00 9.63689135e+00 1.31504964e+01
 4.89587835e+00 1.02650458e+01 1.87335357e+01
 2.04550922e+00 1.39012680e+01 1.18594397e+01
 5.86154594e+00 1.51702969e+01 1.52419601e+01
 2.06318113e+00 1.56044047e+01 1.40450859e+01
 1.04354345e+01 1.85469187e+01 1.69931199e+01
 7.01540920e+00 1.54437580e+01 1.82249557e+01
 3.04865887e+00 1.00843503e+01 1.02872967e+01
 9.70108052e+00 1.73950663e+01 1.69468351e+01
 7.71071001e+00 1.14202352e+01 1.24977870e+01
 7.84203297e+00 1.47792249e+01 1.17389074e+01
 1.02098707e+01 1.23628742e+01 1.48829402e+01
 4.36015242e+00 1.52124430e+01 1.51829400e+01
 3.20312469e+00 1.71604523e+01 1.32815687e+01
 1.02264684e+01 1.17956920e+01 1.36121747e+01
 9.96116248e+00 1.01681222e+01 1.66252451e+01
 8.23986155e+00 1.69930755e+01 1.28591851e+01
 2.13159336e+00 1.30944794e+01 1.83067907e+01
 4.53255967e+00 1.52298238e+01 1.46188572e+01
