-15.1890989579002 14.6423479321382 2.59045476341981 38 38 38
-15.2891400688386 14.7387879354548 2.60751647149654 38 38 38
-15.1823415602801 15.0609366086143 2.62579687300731 39 39 39
-15.2922666175252 15.1699826547919 2.64480849057851 39 39 39
-15.1567082449259 15.4559208279226 2.65797037966627 13 13 13
-15.3026462885496 15.6047398730333 2.68356294178135 31 31 31
-15.1846556224218 15.9231848951411 2.70159960460531 27 27 27
-14.6243412819698 15.3356187978736 2.6019104816999 4 4 4
-14.4817100727804 15.6114744724213 2.61458489341403 8 8 8
-14.6018622305577 15.741000083314 2.63627763654015 13 13 13
-14.4898290463656 16.058734948918 2.65577673148497 4 4 4
-14.6174927384041 16.2002216004504 2.67917564541876 13 13 13
-14.5024620263654 16.5310674314636 2.70013717248445 13 13 13
-14.6189739527372 16.6638770542656 2.72182991561056 9 9 9
-6.10942158769119 5.12459660589608 -0.979098304916955 1 1 1
-6.12158872055192 5.13480242437932 -0.981048214411437 1 1 1
-5.99459306882119 5.1707434519416 -0.972029882999456 16 16 16
-5.97204570271479 5.15129481809528 -0.968373802697302 49 49 49
-5.89451315806956 5.22787701637383 -0.967398847950061 34 34 34
-5.88857260563008 5.22260830685871 -0.96642389320282 31 31 31
-5.81214640680757 5.30164097109649 -0.965936415829199 31 31 31
-5.79894698271943 5.28960090833094 -0.963742767647906 35 35 35
-5.71728845618332 5.36326058618745 -0.962524074213855 38 38 38
-5.71728845618332 5.36326058618745 -0.962524074213855 44 44 44
-5.64803529183493 5.44472704439311 -0.963255290274286 52 52 52
-5.65089360929031 5.4474824730593 -0.963742767647906 12 12 12
-5.59913144147338 5.55435822389533 -0.968373802697302 1 1 1
-5.72033086356418 5.67458847993737 -0.989335329762987 1 1 1
-5.75273869103606 5.86630502583877 -1.00883442470781 1 1 1
0 0 0 5 5 5
0 0 0 5 5 5
-7.55944873010859 7.92711424137393 -1.34495007381921 4 4 4
-7.44673373370527 8.02767718745932 -1.34446259644559 4 4 4
-7.4426836609712 8.02331115563148 -1.34373138038516 6 6 6
-7.34199212233707 8.13695628239505 -1.34568128987964 6 6 6
-7.35662025371647 8.1531682945498 -1.34836241543455 6 6 6
-7.22897592612294 8.24016558553367 -1.34592502856645 6 6 6
-6.59666962907162 7.51941223931621 -1.22819924283708 1 1 1
-15.1813960796645 12.7341892691372 3.13838823763711 44 44 44
-15.2797701944265 12.8167056984557 3.15872471809234 44 44 44
-15.1943450036519 13.1061540011462 3.17812259175733 40 40 40
-15.2915720587057 13.1900189361802 3.19845907221256 44 44 44
-15.1910196629776 13.4730011489825 3.21597973229707 40 40 40
-15.2929926522514 13.5634415691867 3.23756768847262 38 38 38
-15.2115835874974 13.8754857737714 3.26103285822865 40 40 40
-15.3137433160904 13.9686723807141 3.28293368333429 42 42 42
-15.2094219804071 14.2676190070468 3.30295729485943 42 42 42
-15.3088299672072 14.3608714188576 3.32454525103499 40 40 40
-15.2214213674554 14.6735068552595 3.34863615865118 42 42 42
-15.3309279959982 14.7790716527793 3.37272706626738 40 40 40
-15.2230313862674 15.1013010601303 3.39619223602341 38 38 38
-15.3310160400438 15.2084222191934 3.42028314363961 35 35 35
-15.2056213258123 15.5057995148653 3.4396810173046 19 19 19
-15.3370142697774 15.639786321661 3.46940356566224 25 25 25
-14.6590995042917 15.3720675402371 3.36427960515521 2 2 2
-14.5950264384774 15.3048781815101 3.34957476544142 4 4 4
-14.3705298448819 15.491620720278 3.3467589450707 2 2 2
-14.3463483419177 15.4655527411283 3.34112730432925 20 20 20
-14.237616534704 15.7792137853063 3.36615681873569 18 18 18
-14.3593621171181 15.9141415358639 3.39494076030309 21 21 21
-14.2660378638696 16.2615722405408 3.42622765331114 21 21 21
-14.318146485416 16.3209698197227 3.43874241051435 23 23 23
-6.07539964799313 5.0960589261501 -0.693759712271359 41 41 41
-6.06166130708058 5.08453517480956 -0.692190908901901 42 42 42
-5.98947257279794 5.16632667652767 -0.692016597416406 57 57 57
-5.97891178992399 5.15721728440281 -0.690796417017939 66 66 66
-5.89829390370221 5.23123018103182 -0.689750548104967 77 77 77
-5.88189733232472 5.21668796925741 -0.687833121764518 100 100 100
-5.80701565652598 5.29696087634294 -0.687658810279023 100 100 100
-5.80554366269669 5.29561817396618 -0.687484498793528 100 100 100
-5.73394559220948 5.37888627340133 -0.687833121764518 85 85 85
-5.75719524488949 5.40069625322252 -0.690622105532443 100 100 100
0 0 0 81 81 81
0 0 0 27 27 27
-5.73994401709347 5.69404479771463 -0.707356008139994 1 1 1
0 0 0 13 13 13
0 0 0 13 13 13
0 0 0 13 13 13
-6.19986426145018 6.50140427380357 -0.785970488098381 5 5 5
-6.85298813019908 7.18629383469438 -0.868768443708657 2 2 2
-6.79932407074538 7.32976103144579 -0.874695034215497 55 55 55
-6.78441921526945 7.31369340064748 -0.872777607875049 65 65 65
-6.67359254829672 7.39618483746377 -0.871557427476582 70 70 70
-6.66958839276774 7.39174712656129 -0.871034493020096 23 23 23
-6.67873177449696 7.61295324339749 -0.886025280772693 6 6 6
-6.7286613057641 7.66986692099913 -0.892649117221515 6 6 6
-15.2251108408353 12.7708573093941 3.86273730240277 45 45 45
-15.3153604605202 12.8465588939193 3.88563438184796 32 32 32
-15.2289511645261 13.1360041640652 3.90929469727465 39 39 39
-15.3270681868669 13.2206367562976 3.93448148466435 39 39 39
-15.2417391921874 13.5179845859393 3.96004989004481 34 34 34
-15.341617602621 13.6065673123385 3.98599991341602 36 36 36
-15.2415243401816 13.9027967033362 4.01004184683347 35 35 35
-15.3445076127504 13.9967345188993 4.03713672417694 35 35 35
-15.2478167632776 14.303636295183 4.06384998352965 41 41 41
-15.3609332553706 14.4097483495843 4.09399780479915 37 37 37
-15.2608749554492 14.7115402609394 4.12032944616111 37 37 37
-15.3640558271495 14.8110070053173 4.14818755948608 34 34 34
-15.2675974608019 15.1455107639362 4.18024347070934 34 34 34
-15.379100820019 15.2561224912609 4.21077290996959 36 36 36
-15.2690127820613 15.5704423986049 4.23901264128532 21 21 21
-15.3982248095652 15.7022052348912 4.27488473241611 31 31 31
-15.2736840785026 16.0165433882379 4.30197960975958 28 28 28
-15.388849797182 16.1373103702303 4.33441713897359 28 28 28
-17.5414985585147 18.9099668186971 5.01369716251409 4 4 4
-17.5855592566751 18.9574648324752 5.02629055620894 61 61 61
0 0 0 8 8 8
-17.5921246580733 19.4969358277684 5.10452224431333 4 4 4
-17.051477557124 19.4366394333906 5.02590893821819 4 4 4
-17.0307620187099 19.4130262040107 5.01980305036614 4 4 4
-6.15298750264718 5.16113979361225 -0.420885760105754 6 6 6
-6.13921558334257 5.14958787664072 -0.419943712893381 5 5 5
-6.05553227007186 5.22330764974717 -0.419106337593494 3 3 3
-6.05250752867821 5.22069860496708 -0.418896993768522 1 1 1
0 0 0 12 12 12
-6.07558237197039 5.38846832499261 -0.425595996167619 1 1 1
0 0 0 12 12 12
0 0 0 12 12 12
0 0 0 12 12 12
0 0 0 12 12 12
0 0 0 12 12 12
0 0 0 12 12 12
0 0 0 12 12 12
0 0 0 12 12 12
0 0 0 12 12 12
0 0 0 12 12 12
-6.88627807401881 7.22120288655379 -0.522940874779495 66 66 66
-6.87800792421014 7.21253050518483 -0.52231284330458 61 61 61
-6.76704380174037 7.29496247568118 -0.521475468004692 61 61 61
-6.76704380174037 7.29496247568118 -0.521475468004692 64 64 64
-6.66582007164794 7.38757078535866 -0.521475468004692 64 64 64
-6.66314411015791 7.38460508050705 -0.521266124179721 64 64 64
-6.55016940042002 7.46640755542044 -0.520533420792319 66 66 66
-6.55016940042002 7.46640755542044 -0.520533420792319 66 66 66
-15.2484190425949 12.7904082815954 4.59485023602779 35 35 35
-15.3499457727326 12.8755691318009 4.62544357941855 35 35 35
-15.2609761628251 13.1636278990464 4.6528876080485 30 30 30
-15.3480383938836 13.238724983367 4.67943183246108 34 34 34
-15.2661042985391 13.5395941363944 4.71092498006922 38 38 38
-15.3681601958648 13.6301080882183 4.74241812767736 31 31 31
-15.278578064651 13.9365958422478 4.77436117739419 33 33 33
-15.3836794780245 14.0324657533375 4.8072040313284 35 35 35
-15.2743747809337 14.328549778285 4.83509796206703 29 29 29
-15.3838124712781 14.4312108309442 4.86974042443599 33 33 33
-15.2953657506266 14.7447895158716 4.90483278891363 33 33 33
-15.4047987471913 14.8502833318905 4.93992515339128 35 35 35
-15.2944571712432 15.1721556918399 4.97366781154286 30 30 30
-15.3982187531377 15.2750875486366 5.00741046969444 24 24 24
-15.2884798363609 15.5902937571681 5.04115312784602 18 18 18
-15.3362350165727 15.6389916850129 5.05689970165009 11 11 11
-15.1379036663749 15.8741590852146 5.06409813538909 11 11 11
-15.1621114014491 15.8995442010225 5.07219637334547 12 12 12
-14.9573562217542 16.1242272947947 5.07759519864972 12 12 12
-14.9838622579437 16.152801151422 5.08659324082348 12 12 12
-14.745368325637 16.3419430904168 5.08164431762791 6 6 6
-14.8563339128596 16.4649236271752 5.11988599686637 16 16 16
-14.7509441798327 16.8143072859803 5.16397640351776 26 26 26
-14.8678927702112 16.947614653381 5.20491749540835 24 24 24
0 0 0 10 10 10
0 0 0 10 10 10
0 0 0 10 10 10
0 0 0 10 10 10
-6.96118274639419 6.17391229958178 -0.16241209430536 13 13 13
-7.67779708886632 6.80948160787743 -0.179131499672278 44 44 44
-7.57310912841298 6.9079308784708 -0.178922070795031 49 49 49
-7.57458651997139 6.90927850447128 -0.178956975607905 50 50 50
-7.46133683789292 6.99931341397697 -0.178573022666285 49 49 49
-7.44383565688144 6.9828959470169 -0.17815416491179 46 46 46
-7.32649161127474 7.06276518386753 -0.177630592718672 45 45 45
-7.33225029990612 7.06831658114312 -0.17777021197017 45 45 45
-7.23602187903312 7.17815933635557 -0.177909831221668 38 38 38
-7.15084210411808 7.09366069790524 -0.175815542449194 64 64 64
-7.01875471790052 7.1573138096655 -0.174977826940204 71 71 71
-7.01175416462115 7.15017505661377 -0.174803302875832 74 74 74
-6.90157837567013 7.23724734210178 -0.17455896918571 68 68 68
-6.89605821700133 7.23145870195613 -0.174419349934211 68 68 68
-6.78753805904415 7.3170555553742 -0.174209921056964 68 68 68
-6.77257854819473 7.30092900536236 -0.173825968115344 70 70 70
-6.66725318892196 7.38915907535025 -0.17372125367672 71 71 71
-6.67529086606352 7.39806704289136 -0.173930682553967 71 71 71
-6.56343452024748 7.48152820113944 -0.17372125367672 71 71 71
-6.5542032480671 7.47100565795922 -0.173476919986598 75 75 75
-15.2864824117595 12.8223359214922 5.34616619563767 31 31 31
-15.3797287703905 12.9005511774037 5.37877739532059 27 27 27
-15.3027973805981 13.1997015383192 5.41501206163494 31 31 31
-15.4037335262115 13.2867658157443 5.45072908985909 33 33 33
-15.3072395559787 13.5760772285794 5.48230501336159 29 29 29
-15.3982938560473 13.6568338016509 5.51491621304451 29 29 29
-15.3088770146968 13.9642335071827 5.55218615553928 30 30 30
-15.4187766539036 14.0644801956084 5.59204428848506 28 28 28
-15.3279831973106 14.3788386361668 5.63138478334065 28 28 28
-15.4266098012091 14.4713580501324 5.667619449655 28 28 28
-15.3311008860248 14.7792383194085 5.70592466833017 32 32 32
-15.4381946688628 14.8824771246878 5.74578280127596 30 30 30
-15.3388331874123 15.2161768570739 5.78926440085318 30 30 30
-15.3264897057701 15.2039320795602 5.78460565804134 15 15 15
-15.0017869855506 15.2979412270243 5.74112405846412 17 17 17
-14.9287460967922 15.223458418778 5.71317160159304 15 15 15
-14.7547348009951 15.4723542078952 5.72870074429919 17 17 17
-14.7760663051801 15.4947232028646 5.73698295374247 22 22 22
-14.6963488109766 15.842857863285 5.79029967703359 20 20 20
-14.7791192360697 15.9320854732784 5.82291087671651 17 17 17
-14.6344038336267 16.2189637674564 5.85345152403861 22 22 22
-14.7974684677828 16.3996844461528 5.91867392340444 21 21 21
-14.6829857903257 16.7368428721842 5.9657789896131 15 15 15
-14.8231270863722 16.8965871425478 6.02271917953566 23 23 23
-5.11328630030409 3.00474772108715 -1.58914893692948 8 8 8
-5.12327969372488 3.01062019220328 -1.59225476547071 12 12 12
-5.08570068830696 3.08486459815527 -1.59380767974132 16 16 16
-5.10386980411449 3.09588554995122 -1.59950169873358 12 12 12
-5.06397516236674 3.16801088174677 -1.60053697491399 10 10 10
-5.06397516236674 3.16801088174677 -1.60053697491399 6 6 6
-5.02468479293951 3.2406713376359 -1.6020898891846 6 6 6
-5.02468479293951 3.2406713376359 -1.6020898891846 4 4 4
-4.98377429017946 3.31371990117941 -1.60364280345522 6 6 6
-4.97412204817137 3.30730210924685 -1.60053697491399 6 6 6
-4.94180258437839 3.38625721480601 -1.60519571772583 6 6 6
-4.95614512654524 3.3960851138493 -1.60985446053768 6 6 6
-4.92560562162235 3.47720812873357 -1.61554847952993 6 6 6
-4.91455812423326 3.4694091998963 -1.6119250128985 6 6 6
-4.88188295107586 3.54819756132084 -1.61710139380055 6 6 6
-4.88344565368504 3.5493333479922 -1.61761903189075 6 6 6
-4.85570096360655 3.63252842346977 -1.62486596515363 6 6 6
-4.85106028093984 3.6290567492836 -1.62331305088301 6 6 6
-4.80450963240904 3.69997051168981 -1.62486596515363 6 6 6
-4.80604021846588 3.701149221633 -1.62538360324383 6 6 6
-4.75909574744506 3.77066058332334 -1.62693651751445 3 3 3
-4.76818088091139 3.77785878997302 -1.63004234605568 3 3 3
-4.73143915161317 3.85749272178727 -1.63573636504793 11 11 11
-4.74042289683776 3.86481707505649 -1.63884219358916 9 9 9
-14.983785812477 8.80500203374507 0.303357728692862 33 33 33
-15.0561962375287 8.8475529583127 0.304823730833594 33 33 33
-14.9978775199336 9.09735437539368 0.306185018535702 38 38 38
-15.0679770386656 9.13987506957872 0.307616115863559 33 33 33
-15.0032526965783 9.38599939383242 0.308907593939918 38 38 38
-15.0575017458766 9.41993747073667 0.310024547951904 38 38 38
-15.0018139819344 9.67542255627929 0.31159526453126 33 33 33
-15.0774364339549 9.72419526996054 0.313165981110615 38 38 38
-15.0151298851122 9.98358509476123 0.314736697689971 34 34 34
-15.0800727780388 10.02676573341 0.316097985392079 39 39 39
-15.0078897318981 10.2838132474783 0.317563987532811 39 39 39
-15.0837704669681 10.3358087859905 0.319169608925041 39 39 39
-15.0082361874447 10.5949937688571 0.320670515878647 34 34 34
-15.1029872159493 10.6618828119172 0.322694995025372 39 39 39
-15.016017281694 10.9137798742013 0.324021377914606 34 34 34
-15.0904260714126 10.9678608689458 0.325626999306836 34 34 34
-15.0178314193725 11.2347732899164 0.327372239950564 34 34 34
-15.0994935797721 11.295864391077 0.329152385407167 9 9 9
-13.5698545212791 10.4501947998964 0.298959722270667 19 19 19
-13.65540877045 10.5160804413669 0.300844582165893 19 19 19
-13.5937562860924 10.7704160049291 0.30272944206112 9 9 9
-13.6298056801406 10.7989781596753 0.303532252757235 9 9 9
-13.3909069056558 10.9174659699653 0.301577583236259 14 14 14
-15.1298649552097 12.3352202313427 0.340740783281523 19 19 19
-5.83171784064995 3.42692348180741 -1.56161021925511 5 5 5
-5.8216370837949 3.4209996728501 -1.55891080660298 7 7 7
-5.76830646711303 3.49891696391415 -1.55756110027692 6 6 6
-5.77497117706925 3.5029596178297 -1.55936070871167 6 6 6
-5.7294287787572 3.58431708989915 -1.56026051292905 7 7 7
-5.72447252548838 3.58121646957917 -1.55891080660298 5 5 5
-5.664725715566 3.65346584283237 -1.55621139395086 5 5 5
-5.65981268372249 3.65029718208403 -1.55486168762479 7 7 7
-5.60991765083561 3.73004367396466 -1.55531158973348 6 6 6
-5.59368994574207 3.71925384557598 -1.55081256864661 7 7 7
-5.54282334972918 3.7980929504849 -1.55126247075529 6 6 6
-5.54282334972918 3.7980929504849 -1.55126247075529 6 6 6
-5.47174127950066 3.86275002852136 -1.54631354755973 5 5 5
-5.48925339881241 3.87511262680875 -1.55126247075529 6 6 6
-5.43372650570932 3.94928254725839 -1.55081256864661 7 7 7
-5.43372650570932 3.94928254725839 -1.55081256864661 7 7 7
-5.37407737259608 4.02032352325534 -1.54946286232054 6 6 6
-5.35223152961805 4.00398074470552 -1.54316423279891 5 5 5
-5.31124518053771 4.09020941820667 -1.54766325388579 7 7 7
-5.29734948093747 4.07950828891485 -1.5436141349076 7 7 7
-5.248236184977 4.15820953492857 -1.54586364545104 7 7 7
-5.22074251462497 4.13642613224268 -1.53776540749466 7 7 7
-5.16248008995826 4.20891587850094 -1.53776540749466 6 6 6
-5.16096970959256 4.20768448122812 -1.53731550538597 7 7 7
-15.0378525816425 8.83677357789405 0.914099811739257 30 30 30
-15.0912332560993 8.86814194854729 0.91734464102632 33 33 33
-15.0308347553969 9.11734544745336 0.921322173700783 34 34 34
-15.097433546065 9.15774268358727 0.925404378287733 34 34 34
-15.0442361514785 9.41163854626359 0.930009942437112 37 37 37
-15.1187377148623 9.45824654806838 0.934615506586491 37 37 37
-15.0473177396283 9.70477021277716 0.938383695435983 34 34 34
-15.1144557998163 9.74807091645938 0.942570571935418 42 42 42
-15.0483946435448 10.0057028885472 0.947071464172312 35 35 35
-15.1199111079206 10.0532543059 0.951572356409205 35 35 35
-15.0555077875114 10.3164424311865 0.956491936296041 35 35 35
-15.1214106449748 10.3616008572368 0.960678812795477 32 32 32
-15.0503219426635 10.6247040098695 0.965493720769828 37 37 37
-15.1286410507779 10.679993015992 0.970517972569151 40 40 40
-15.0639626536954 10.9486270128396 0.975960912018417 40 40 40
-15.1447432342065 11.007339083908 0.981194507642711 37 37 37
-15.0715015647866 11.2749236884211 0.986428103267005 38 38 38
-15.1354722845014 11.3227799010205 0.990614979766441 35 35 35
-15.0645210742759 11.6012430012764 0.996476606865651 35 35 35
-13.7305514035181 10.5739480590416 0.908238184640047 27 27 27
-15.0800315392312 11.9480009518149 1.00830453297656 32 32 32
-15.1583043075237 12.0100169434677 1.01353812860085 32 32 32
-15.0727319152801 12.2886402630413 1.01919041187509 36 36 36
-15.160967071814 12.3605774608428 1.02515671088678 37 37 37
-6.75363256254422 3.96867315060334 -1.52265578310483 5 5 5
-6.76886632020409 3.97762504492801 -1.52609034502161 4 4 4
-6.68077704331541 4.05239982692592 -1.5188396031973 4 4 4
-6.67238410733135 4.04730887236948 -1.51693151324353 4 4 4
-6.60762498659755 4.13371455997812 -1.51502342328977 2 2 2
-6.59430987327443 4.12538465658269 -1.51197047936374 4 4 4
-6.56485150719212 4.23400212986245 -1.51845798520654 5 5 5
-6.54835276000139 4.22336125997087 -1.51464180529901 4 4 4
-6.472398552065 4.30350867466156 -1.51082562539148 4 4 4
-6.48547740743669 4.31220482757828 -1.51387856931751 4 4 4
-6.41168128439725 4.39345798170079 -1.51082562539148 4 4 4
-6.4343545700708 4.40899433222967 -1.51616827726202 4 4 4
-6.35292178307974 4.48481526177435 -1.51158886137299 4 4 4
-6.33367536515574 4.4712283435362 -1.50700944548395 4 4 4
-6.28571846912021 4.5685181653867 -1.51044400740073 4 4 4
-6.29048278327063 4.5719809128592 -1.51158886137299 4 4 4
-6.223703829111 4.65592531911429 -1.51082562539148 4 4 4
-6.21269955358593 4.64769306924467 -1.50815429945621 4 4 4
-6.1409801713396 4.72919138168852 -1.5066278274932 4 4 4
-6.13942470523744 4.72799351153105 -1.50624620950244 6 6 6
-6.0551875102025 4.79756199097484 -1.50166679361341 4 4 4
-6.06288152228662 4.80365800366985 -1.50357488356717 4 4 4
-6.00130751634821 4.89280308246753 -1.50510135553019 5 5 5
-5.97239655214673 4.86923227654286 -1.49785061370588 4 4 4
-14.7503948336818 8.66785324713876 1.49681272594828 35 35 35
-14.8225407033702 8.71024870962622 1.50413380833908 35 35 35
-14.765918209203 8.95665339636624 1.5109319562734 36 36 36
-14.8255406292909 8.99281893269213 1.51703285826574 36 36 36
-14.7626377216405 9.23547123473341 1.52348238322906 33 33 33
-14.8234449250706 9.27351207734787 1.5297575967069 42 42 42
-15.0859758603789 9.72970277452898 1.5705464843128 42 42 42
-15.1596476625828 9.77721741626919 1.57821618967459 42 42 42
-15.0896825456724 10.0331552840595 1.5853629605799 43 43 43
-15.1477516923572 10.0717655572802 1.59146386257224 42 42 42
-15.0796112895893 10.3329588048012 1.59930787941953 40 40 40
-15.1667196708806 10.3926478311395 1.60854638815078 42 42 42
-15.0950100691415 10.6562513826362 1.61656471648356 36 36 36
-15.1763935609958 10.7137036760514 1.62528029075833 45 45 45
-15.0884775833684 10.9664446898616 1.63190412720715 41 41 41
-15.1722845513597 11.0273563672674 1.64096832445291 45 45 45
-15.104950782197 11.2999469000844 1.65038114466966 39 39 39
-15.1799331107524 11.3560408485744 1.65857378448793 9 9 9
-15.1019829146419 11.6300925021147 1.66763798173369 9 9 9
-15.1809103888482 11.6908748398492 1.67635355600846 7 7 7
-15.1041676383347 11.9671241303249 1.6859406877107 5 5 5
-15.1900577562119 12.0351753945069 1.69552781941294 7 7 7
-15.1085598245195 12.3178503817176 1.70546357408618 5 5 5
-15.2058451136594 12.3971660577241 1.71644519767238 33 33 33
-8.00282515723553 4.70274286265416 -1.47017110244809 4 4 4
-8.01134061281888 4.70774684527031 -1.47173544709849 6 6 6
-7.93976243359723 4.81607030187241 -1.47079684030825 4 4 4
-7.93469557818332 4.81299686836771 -1.46985823351801 6 6 6
-7.85083470502515 4.91146361876916 -1.4667295442172 3 3 3
-7.84246137449504 4.90622528299829 -1.4651651995668 8 8 8
-7.75912996923508 5.00425223321955 -1.46234937919608 3 3 3
-7.73920922476978 4.99140434558613 -1.45859495203511 3 3 3
-7.68192356216265 5.1077238865809 -1.46109790347576 6 6 6
-7.66218414401576 5.09459911428133 -1.45734347631479 3 3 3
-7.58215795194044 5.19550035238541 -1.45577913166439 4 4 4
-7.58704651283788 5.19885012695174 -1.45671773845463 3 3 3
-7.50080950367113 5.29516120083863 -1.45421478701399 4 4 4
-7.50403704648682 5.29743966951369 -1.45484052487415 6 6 6
-7.40791368684776 5.38414000121734 -1.45046035985302 3 3 3
-7.39992413369111 5.37833312028419 -1.44889601520262 4 4 4
-7.31241211891599 5.4703831774595 -1.44639306376197 1 1 1
-6.52153907988116 4.87873455346431 -1.28995859872174 1 1 1
-6.39800814771806 4.92712957019056 -1.27900818616893 15 15 15
-6.38235744285574 4.91507690490144 -1.27587949686812 2 2 2
-6.29385539117834 4.98666000855181 -1.27181220077708 8 8 8
-6.28456556772272 4.97929962477535 -1.26993498719659 16 16 16
-6.19605879231373 5.05158175540885 -1.26618056003563 12 12 12
-6.18381059109344 5.04159592540063 -1.26367760859498 23 23 23
-13.9090966908407 8.17347672898719 1.98086430770727 28 28 28
-13.9604407170158 8.20364829313997 1.98817646831158 25 25 25
-13.9090349223429 8.43688845572332 1.99743853841037 23 23 23
-14.6711040718404 8.89914140467021 2.10687720878819 50 50 50
-14.6143272549033 9.1426885576002 2.1166267562606 40 40 40
-14.6900578774816 9.19006545592954 2.12759499716706 50 50 50
-15.0924481183067 9.73387705841356 2.20510389957274 33 33 33
-15.1791959133937 9.78982506405494 2.21777831128687 37 37 37
-15.1088037245035 10.0458689879991 2.2277715974461 37 37 37
-15.1898027816699 10.0997253972345 2.2397147930998 33 33 33
-15.1226345574074 10.3624395152436 2.25092677269307 37 37 37
-15.1897734872237 10.4084449316079 2.2609200588523 35 35 35
-15.1240536899935 10.6767545902157 2.27310699319281 42 42 42
-15.2035174076441 10.7328516280583 2.28505018884652 35 35 35
-15.1375913190822 11.0021410060236 2.29772460056065 38 38 38
-15.2098509572872 11.0546599776233 2.30869284146711 38 38 38
-15.1306949618871 11.3192060070937 2.3201485597472 39 39 39
-15.2197084000493 11.385796566648 2.33379792620857 39 39 39
-15.1441837748683 11.6625915395508 2.34695981529633 39 39 39
-15.225967714664 11.7255736519255 2.35963422701047 36 36 36
-15.1530954516585 12.0058899352003 2.37377107084546 41 41 41
-15.2308914032534 12.0675281420757 2.38595800518598 37 37 37
-15.154769625666 12.3555247479909 2.40082606508141 41 41 41
-15.2440058325989 12.4282780916846 2.4149629089164 41 41 41
-7.35931041843424 4.32459086189798 -1.04807635328427 4 4 4
-7.33192693780751 4.3084993610165 -1.0441765342953 4 4 4
-7.25747813641714 4.40221293919132 -1.04222662480082 4 4 4
-7.22013844535045 4.37956357420952 -1.03686437369099 9 9 9
-7.14223916050316 4.46816792243842 -1.03442698682289 5 5 5
-7.11026400874784 4.44816434314381 -1.0297959517735 5 5 5
-7.00822090693118 4.51995330191173 -1.02394622329005 5 5 5
-6.99320686547382 4.51026999324303 -1.02175257510876 6 6 6
-6.90640940492075 4.59208322011598 -1.01834023349341 8 8 8
-6.89153202707387 4.58219122658294 -1.01614658531212 8 8 8
-6.82033274841384 4.67347705262474 -1.01517163056488 8 8 8
-6.78103191144819 4.64654705280169 -1.00932190208143 8 8 8
-6.68630424231646 4.72016504133167 -1.00493460571885 8 8 8
-6.66684374003468 4.70642699124776 -1.00200974147712 8 8 8
-6.58526169508393 4.78622894512598 -0.99957235460902 8 8 8
-6.57241553718081 4.7768922390638 -0.997622445114537 8 8 8
-6.63785924580741 4.96575315533389 -1.01785275611979 2 2 2
-6.66488118239235 4.98596814662715 -1.02199631379557 8 8 8
-6.41532096974636 4.94046223801304 -0.994210103499193 1 1 1
-6.40588436130839 4.93319507120056 -0.992747671378331 1 1 1
-6.30769575531611 4.99762581346154 -0.988116636328936 2 2 2
-6.28591288886954 4.98036711553641 -0.984704294713592 9 9 9
-6.20807060300127 5.06137485869475 -0.98348560127954 1 1 1
-6.16499105482679 5.02625255484259 -0.976660918048852 1 1 1
-13.8870049653327 8.16049485041116 2.55113325587608 1 1 1
-14.6653176056512 8.61785886152692 2.69411435692286 30 30 30
0 0 0 10 10 10
-14.6769911822931 8.90271238529489 2.71883100239921 40 40 40
-14.624859103879 9.14927725740425 2.73228436639267 47 47 47
-14.6985444125439 9.19537461218792 2.74605059931621 50 50 50
-15.143085917707 9.76653591600957 2.85399038019397 43 43 43
-15.2045082131417 9.80615023621264 2.86556653060695 42 42 42
-15.1368438156361 10.0645128917168 2.87901989460041 45 45 45
-15.2141565367114 10.1159182498901 2.89372473431419 42 42 42
-15.1463911805902 10.3787181980276 2.90811670509789 43 43 43
-15.2294967158468 10.4356643656553 2.924073020532 43 43 43
-15.1452446626406 10.6917142577174 2.93627490880513 46 46 46
-15.2259332330329 10.7486759745939 2.95191835530916 45 45 45
-15.1465948743809 11.0086848730671 2.9656845882327 45 45 45
-15.2376757803667 11.074883315705 2.98351811724728 43 43 43
-15.1610361582976 11.3419041219877 2.99884869482123 45 45 45
-15.2511956847476 11.4093520651232 3.01668222383581 41 41 41
-15.1592727296471 11.6742115990376 3.03044845675935 45 45 45
-15.2500468178485 11.7441170577145 3.04859485470402 43 43 43
-15.1733783108358 12.0219601682184 3.06611551478853 43 43 43
-15.2616316336642 12.0918838140948 3.08394904380311 39 39 39
-15.1862384880059 12.3811809814432 3.1033469174681 45 45 45
-15.2689138462429 12.4485853339986 3.12024183969245 41 41 41
-7.33311232618929 4.30919593711836 -0.744135731579505 3 3 3
-7.31078146176191 4.29607353206272 -0.741869682268066 3 3 3
-7.21601632835532 4.37706319647063 -0.73838345255816 3 3 3
-7.19046386260336 4.36156368090239 -0.73576878027573 4 4 4
-7.09248464452728 4.43704161494801 -0.731933927594833 4 4 4
-7.06545922078057 4.42013457378602 -0.729144943826908 4 4 4
-6.9937981319426 4.51065133065567 -0.728099074913936 4 4 4
-6.98040325881462 4.50201230488472 -0.726704583029974 6 6 6
-6.8886599152976 4.58028155463609 -0.723741287776553 6 6 6
-6.85547754576341 4.55821854136712 -0.720255058066647 6 6 6
-6.77144397963029 4.63997714177447 -0.718163320240703 6 6 6
-6.75665199035439 4.62984126937739 -0.716594516871245 8 8 8
-6.67507400189232 4.71223710590805 -0.714851402016292 8 8 8
-6.66205264319562 4.70304473896163 -0.71345691013233 8 8 8
-6.56917695255389 4.77453840588293 -0.71049361487891 9 9 9
-6.55467190040154 4.76399600017808 -0.708924811509452 11 11 11
-6.46283857400506 4.83482096453757 -0.706135827741527 11 11 11
-6.45645709923438 4.83004701147459 -0.705438581799545 11 11 11
-6.36313297051546 4.90027206815348 -0.70264959803162 11 11 11
-6.34261182722181 4.88446866034251 -0.700383548720181 13 13 13
-6.27154024354343 4.96897958099514 -0.70003492574919 17 17 17
-6.26217041250227 4.96155580672074 -0.698989056836218 20 20 20
-6.1845648096076 5.04221083184575 -0.698117499408742 24 24 24
-6.1629458564654 5.02458512606651 -0.695677138611807 30 30 30
-14.6362558316591 8.60078113615716 3.29985076604197 55 55 55
-14.6954982225586 8.63559405853087 3.31320739571832 48 48 48
-14.6557448153736 8.88982484645483 3.33190667726523 57 57 57
-14.7245668904429 8.93157067381764 3.3475530148861 53 53 53
-14.6649329362496 9.17434735213279 3.36243611652547 55 55 55
-14.8480157444425 9.28888352381984 3.40441409550831 27 27 27
-15.1722479165968 9.78534395230337 3.50935904296541 47 47 47
-15.2497920283933 9.83535604079383 3.52729508853081 47 47 47
-15.1910905142177 10.1005816127697 3.54599437007771 42 42 42
-15.2581196479976 10.1451493964679 3.56164070769859 47 47 47
-15.1781452380326 10.4004769397575 3.57652380933796 40 40 40
-15.2607407787005 10.4570736452555 3.59598632686636 45 45 45
-15.1886314783552 10.7223429762694 3.61392237243176 40 40 40
-15.2736364908529 10.7823518651545 3.63414812594167 47 47 47
-15.1949859304048 11.0438559389641 3.65132093552556 42 42 42
-15.2680387473779 11.0969514002091 3.6688753631002 42 42 42
-15.2000485788518 11.3710891413276 3.68986435259162 38 38 38
-15.284938704331 11.4345950688932 3.71047172409229 42 42 42
-15.2077920808478 11.7115765295767 3.73107909559296 38 38 38
-15.2964536486711 11.7798551285524 3.75283132106588 42 42 42
-15.2049066806381 12.0469402878837 3.77076736663128 38 38 38
-15.3095452449821 12.1298460605359 3.79671739000249 42 42 42
-15.220861837229 12.4094090349702 3.81732476150316 40 40 40
-15.3167245080023 12.4875648651415 3.8413666949206 37 37 37
0 0 0 12 12 12
0 0 0 12 12 12
0 0 0 12 12 12
0 0 0 12 12 12
0 0 0 12 12 12
0 0 0 12 12 12
0 0 0 12 12 12
0 0 0 12 12 12
0 0 0 12 12 12
0 0 0 12 12 12
0 0 0 12 12 12
0 0 0 12 12 12
0 0 0 12 12 12
0 0 0 12 12 12
0 0 0 12 12 12
0 0 0 12 12 12
0 0 0 12 12 12
0 0 0 12 12 12
0 0 0 12 12 12
-6.42457516402945 4.94758892701495 -0.424967964692704 7 7 7
-6.32757058876493 5.01337276520669 -0.423083870267958 9 9 9
-6.31191603510643 5.00096956687614 -0.422037151143099 8 8 8
-6.23528439506502 5.08356197797374 -0.421618463493156 8 8 8
-6.22444849864857 5.07472758526128 -0.420885760105754 7 7 7
-14.6574204672516 8.61321822393773 3.92494599619176 39 39 39
-14.731346017522 8.65665948962472 3.94474168897402 42 42 42
-14.670692791141 8.89889193161874 3.96138806699546 41 41 41
-14.7356737132142 8.93830780729541 3.97893424923428 39 39 39
-14.6919867732087 9.19127216853321 4.00097945255998 41 41 41
-15.2636079835461 9.5488770454378 4.15664558216594 34 34 34
-15.1943698146925 9.79961147435639 4.17419176440476 36 36 36
-15.2598769059393 9.84186028433421 4.19218784875227 37 37 37
-15.1940002790783 10.1025163203156 4.21243344364322 34 34 34
-15.2767615750554 10.1575444450979 4.23537845118629 37 37 37
-15.2122208116262 10.423826447343 4.25742365451199 34 34 34
-15.2877755382612 10.47559859603 4.27856905362031 36 36 36
-15.2052955951442 10.7341069311631 4.29701504007651 34 34 34
-15.2864881483169 10.7914244323137 4.31996004761958 36 36 36
-15.2150647615626 11.0584494186649 4.34245515305397 34 34 34
-15.3033411422762 11.1226095064649 4.36764967114048 34 34 34
-15.2234317209778 11.3885819665735 4.38924497235749 33 33 33
-15.3014525887564 11.4469490328228 4.41174007779188 34 34 34
-15.2265988286229 11.726059675103 4.43693459587839 33 33 33
-15.3115169928467 11.7914554652196 4.46167921185622 31 31 31
-15.2406579318104 12.0752662222111 4.48912324048617 33 33 33
-15.3246663689972 12.1418266193069 4.513867856464 34 34 34
-15.2427586506316 12.4272612773059 4.54041208087657 35 35 35
-15.3288503314764 12.4974509218567 4.56605650107177 35 35 35
0 0 0 10 10 10
0 0 0 10 10 10
0 0 0 10 10 10
0 0 0 10 10 10
0 0 0 10 10 10
0 0 0 10 10 10
0 0 0 10 10 10
0 0 0 10 10 10
0 0 0 10 10 10
0 0 0 10 10 10
0 0 0 10 10 10
0 0 0 10 10 10
0 0 0 10 10 10
0 0 0 10 10 10
0 0 0 10 10 10
-6.73561305192005 4.89550569817669 -0.145343640809697 1 1 1
-6.61783743003162 4.95077492346991 -0.144261591610586 2 2 2
-6.6002240228866 4.93759841145487 -0.143877638668965 2 2 2
-6.52271933031009 5.02317010988599 -0.143703114604592 2 2 2
-6.5401470477338 5.03659125907441 -0.144087067546213 1 1 1
0 0 0 10 10 10
0 0 0 10 10 10
0 0 0 10 10 10
0 0 0 10 10 10
-14.6986161564116 8.63742626664303 4.56815614605949 42 42 42
-14.7652387792169 8.67657607408391 4.58886166966769 43 43 43
-14.7120285906951 8.92396524058753 4.6106024694563 42 42 42
-14.7797498405231 8.96504333364514 4.63182563115471 40 40 40
-14.7104220272891 9.20280521987371 4.64942532622168 40 40 40
-15.2901914993066 9.56550763000901 4.83266921015427 37 37 37
-15.2299088990519 9.82253241304117 4.85596292421349 31 31 31
-15.3078361591686 9.87279161310789 4.88080955254334 33 33 33
-15.2392814237799 10.1326238295263 4.90358562851236 33 33 33
-15.3036297038338 10.1754091090767 4.92429115212056 34 34 34
-15.2461223233628 10.4470566830213 4.95224360899163 34 34 34
-15.3242094973823 10.5005641333681 4.97760787541168 38 38 38
-15.2534374665107 10.7680924588946 5.00297214183173 34 34 34
-15.3307699482344 10.8226849607555 5.02833640825177 32 32 32
-15.2504147629799 11.0841421257779 5.051630122311 34 34 34
-15.3348007038756 11.1454746060312 5.07958257918207 34 34 34
-15.2601115023825 11.4160219488784 5.10649975987273 32 32 32
-15.3560189441613 11.4877698820594 5.13859332146545 34 34 34
-15.2767794332828 11.7647039430315 5.16654577833652 28 28 28
-15.3594310803519 11.8283542799641 5.19449823520759 36 36 36
-15.2751377347202 12.1025847803264 5.22193305398846 27 27 27
-15.3735600139388 12.1805653523646 5.25557952985179 34 34 34
-15.287339790497 12.4636078131165 5.28508490099347 31 31 31
-15.3816691153551 12.5405135224432 5.31769610067639 34 34 34
-5.58748884061496 2.13365451034732 -1.60260752727481 8 8 8
-5.57485562941202 2.12883035609266 -1.59898406064337 8 8 8
-5.54497411695814 2.20549223895092 -1.59898406064337 6 6 6
-5.54138397508895 2.20406427375898 -1.59794878446296 6 6 6
-5.5154250619404 2.28343616111074 -1.59950169873358 8 8 8
-5.53505926119003 2.29156489825385 -1.60519571772583 6 6 6
-5.47631927055575 2.3562098759529 -1.59743114637276 6 6 6
-5.48519211448082 2.36002745514272 -1.60001933682378 6 6 6
-5.44641510462724 2.434017995837 -1.59846642255317 6 6 6
-5.46405245924067 2.441900178466 -1.60364280345522 12 12 12
-5.41759607667147 2.51131735784705 -1.60001933682378 6 6 6
-5.44388657849938 2.5235042748214 -1.60778390817686 8 8 8
-5.39941638075604 2.59508255264029 -1.60519571772583 8 8 8
-5.38374571083446 2.58755087157813 -1.60053697491399 10 10 10
-5.34363440993345 2.66074531075854 -1.59950169873358 10 10 10
-5.35573973060321 2.66677288913242 -1.60312516536501 6 6 6
-5.32189666470967 2.74213223020571 -1.60416044154542 8 8 8
-5.30128912680179 2.73151409959504 -1.59794878446296 6 6 6
-5.26774880516304 2.80799160281006 -1.59950169873358 8 8 8
-5.27286312439135 2.81071780824968 -1.60105461300419 6 6 6
-5.23648923586859 2.88592939442476 -1.6020898891846 6 6 6
-5.23818115484626 2.88686184334056 -1.60260752727481 10 10 10
-5.17773333882846 2.94734146267735 -1.59639587019235 8 8 8
-5.16598102580259 2.94065164742485 -1.59277240356091 6 6 6
0 0 0 18 18 18
0 0 0 18 18 18
0 0 0 18 18 18
0 0 0 18 18 18
0 0 0 18 18 18
-15.313001423376 6.33972192398447 0.289291089104411 4 4 4
-15.2167883427876 6.54708851003908 0.289151469852913 9 9 9
0 0 0 18 18 18
0 0 0 18 18 18
0 0 0 18 18 18
0 0 0 18 18 18
-15.0038667364853 6.9550166599555 0.288662802472669 52 52 52
-14.9593670241349 7.18981268072518 0.289709946858906 52 52 52
-15.0062276919213 7.21233498550817 0.290617471993645 47 47 47
-15.1958453017768 7.56643719011803 0.2963069564922 28 28 28
-15.2370167521174 7.58693760893917 0.297109767188315 47 47 47
-15.2251752524606 7.84484299500771 0.298959722270667 23 23 23
-15.2856137765217 7.87598422814609 0.300146485908402 23 23 23
-15.2288617908143 8.1177971104182 0.301228535107513 19 19 19
-15.2535667809732 8.13096619031923 0.301717202487757 47 47 47
-15.0562410861223 8.2977824956378 0.300076676282653 23 23 23
-15.0422303930097 8.2900609346322 0.299797437779656 33 33 33
-14.9925387574025 8.53426165830469 0.30112382066889 33 33 33
-15.0446746288204 8.56393916494073 0.302170965055127 33 33 33
-6.04595272621614 2.30872484431091 -1.49412490295195 3 3 3
-5.99679863901113 2.28995472362546 -1.48197754601738 3 3 3
-5.96827701767472 2.37385934807784 -1.48287735023476 3 3 3
-5.98638465425747 2.38106159124555 -1.48737637132164 2 2 2
-6.26944981423471 2.59560926951585 -1.56655914245068 7 7 7
-6.26944981423471 2.59560926951585 -1.56655914245068 6 6 6
-6.23127640437783 2.68103342380499 -1.56610924034199 6 6 6
-6.22590615754843 2.67872285205222 -1.56475953401593 5 5 5
-6.19857339511834 2.77015961919911 -1.56745894666805 5 5 5
-6.18611931539222 2.76459385647397 -1.56430963190724 5 5 5
-6.14918202843141 2.85044276945223 -1.56475953401593 5 5 5
-6.14918202843141 2.85044276945223 -1.56475953401593 6 6 6
-6.10000219883745 2.9318000615196 -1.56251002347249 5 5 5
-6.09648938444134 2.93011172287202 -1.56161021925511 5 5 5
-6.06719552163354 3.02102666373141 -1.56475953401593 7 7 7
-6.06545107208736 3.02015805341982 -1.56430963190724 7 7 7
-6.03189513750818 3.10796227507822 -1.56655914245068 6 6 6
-6.04055667561488 3.11242517323313 -1.56880865299411 5 5 5
-5.98963291918714 3.19279441049043 -1.56700904455936 5 5 5
-5.98791324278197 3.19187773107312 -1.56655914245068 7 7 7
-5.92911031302736 3.26764612021863 -1.56295992558117 7 7 7
-5.92569689315803 3.26576491922829 -1.5620601213638 6 6 6
-5.89196141286612 3.35390431145004 -1.56520943612461 6 6 6
-5.88688067580415 3.35101218355859 -1.56385972979855 5 5 5
-15.2309201554452 5.81612284398383 0.854436821622301 34 34 34
-15.2645054259092 5.82894781166627 0.856320916047047 23 23 23
-15.2290830758651 6.05730952421196 0.858937713859194 27 27 27
-15.2847584953479 6.07945420928707 0.862077871233771 35 35 35
-15.2334480051111 6.3067860849574 0.864066637571003 30 30 30
-15.2795820087608 6.32588598224679 0.86668343538315 44 44 44
-15.2239341444055 6.55016302186204 0.868567529807896 24 24 24
-15.256957862723 6.56437161843875 0.870451624232642 49 49 49
-15.0106478591765 6.70830010502997 0.861659183583827 52 52 52
-15.0471168772989 6.72459821024141 0.863752621833545 57 57 57
-14.9964590876698 6.95158285706801 0.866264747733206 46 46 46
-15.0308878845119 6.96754226672053 0.868253514070438 49 49 49
-14.9915451900325 7.20527824052059 0.871707687182472 52 52 52
-15.1265555033433 7.27016727366649 0.879558080618914 25 25 25
-15.2506346728468 7.59371835326847 0.892851413504622 28 28 28
-15.2863923156905 7.61152308563253 0.89494485175434 48 48 48
-15.2314818524507 7.8480925002472 0.89798033721643 25 25 25
-15.3149274343443 7.89108822789747 0.902899917103267 9 9 9
-15.236745151692 8.12199936302463 0.904888683440499 30 30 30
-15.2984323790268 8.1548819515389 0.908552200377505 51 51 51
-15.025652955259 8.28092479155346 0.899131728253775 23 23 23
-15.0763798395084 8.30888134789281 0.902167213715866 30 30 30
-15.0176662849247 8.548565099381 0.9056213868279 30 30 30
-15.088831832507 8.58907494324076 0.909912935239821 27 27 27
-6.05796958852827 2.3133136378108 -1.26048422345745 3 3 3
-6.04879918345935 2.30981180063579 -1.25857613350369 4 4 4
-5.99813480676415 2.38573516944688 -1.25475995359616 1 1 1
-5.93975879891243 2.36251633568098 -1.24254817789206 1 1 1
-5.93884488518318 2.45873582067742 -1.24941730172562 1 1 1
-5.94610065168921 2.46173977403194 -1.25094377368863 1 1 1
-5.90257673336681 2.53960897924736 -1.24903568373486 3 3 3
-5.93503820027808 2.55357566474276 -1.25590480756842 3 3 3
-7.18216846362318 3.20973097969333 -1.52914328894763 2 2 2
-7.20009251768762 3.2177412891011 -1.53295946885516 4 4 4
-7.1425746462833 3.31092821153069 -1.53028814291989 4 4 4
-7.08557654436782 3.2845068392691 -1.51807636721579 1 1 1
-6.9682474364536 3.34909850799266 -1.50281164758567 1 1 1
-6.96470845857831 3.34739759458078 -1.50204841160416 1 1 1
-6.92783725118941 3.44956429757516 -1.50433811954868 1 1 1
-7.04031355359329 3.50556940032625 -1.52876167095688 4 4 4
-6.97734904838472 3.59511183932667 -1.52570872703085 2 2 2
-6.96687778918254 3.58971647388496 -1.52341901908633 2 2 2
-6.92647332453372 3.69218040794118 -1.52570872703085 2 2 2
-6.9160784170932 3.68663936680871 -1.52341901908633 2 2 2
-6.88456380015511 3.79421481525582 -1.52799843497537 6 6 6
-6.87768611404106 3.79042439086495 -1.52647196301236 4 4 4
-6.80429694747263 3.87323664725319 -1.52189254712332 4 4 4
-6.8247712612564 3.88489132121685 -1.52647196301236 5 5 5
-15.27009772209 5.83108330192134 1.43005142700358 73 73 73
-15.3054624047716 5.84458776105548 1.43336334522799 71 71 71
-15.2585994664816 6.06904955564465 1.4366752634524 69 69 69
-15.2993285599374 6.08524939672984 1.44051011613329 68 68 68
-15.2533728314876 6.31503514437547 1.44434496881419 61 61 61
-15.3178029605127 6.34170980404879 1.45044587080653 68 68 68
-15.2655131274643 6.56805255782135 1.45393210051643 56 56 56
-15.1886456593725 6.53497999968342 1.44661101812563 22 22 22
-15.0049723114187 6.70576368701675 1.43789544385086 40 40 40
-15.0668184816924 6.73340291181473 1.44382203435771 42 42 42
-15.0340076277086 6.96898841832188 1.44974862486455 40 40 40
-15.0810058480188 6.9907743626379 1.45428072348742 40 40 40
-15.0268230710455 7.22223359403568 1.45863851062481 30 30 30
-15.3249173145677 7.36550448034183 1.48757421721703 55 55 55
-15.2705236443056 7.60362162948183 1.4924549388109 47 47 47
-15.3311634251869 7.63381587561619 1.49838152931774 47 47 47
-15.2882135681255 7.87732378296983 1.50465674279557 52 52 52
-15.3378046223317 7.90287580636222 1.50953746438944 47 47 47
-15.2716812458558 8.14062216807388 1.51406956301232 56 56 56
-15.2576156863386 8.13312447323799 1.51267507112836 31 31 31
-14.9401594722334 8.23380769752694 1.4924549388109 24 24 24
-14.8145239335741 8.16456754870401 1.47990451185524 32 32 32
-14.7507593098764 8.39663259479672 1.4849595449346 32 32 32
-14.8061677261126 8.42817294495912 1.49053751247045 34 34 34
-6.0621578363128 2.31491297411926 -1.02777443531432 1 1 1
-6.07323027071702 2.31914112567016 -1.0296516488948 1 1 1
-5.93972416004363 2.36250255820344 -1.01244385774037 11 11 11
-5.91953350313371 2.35447180167061 -1.00900229950949 29 29 29
-5.88608293084268 2.43689189149355 -1.00900229950949 100 100 100
-5.87695722087238 2.43311376452999 -1.00743795485909 81 81 81
-5.83740798429188 2.51156984518893 -1.00649934806885 100 100 100
0 0 0 28 28 28
-5.85948311553777 2.61861923403616 -1.01651115383142 1 1 1
-5.8811247890947 2.62829095789225 -1.02026558099239 1 1 1
-5.93035283311804 2.74900487175429 -1.03528328963625 1 1 1
-5.95902785437216 2.76229712861378 -1.04028919251754 1 1 1
-6.06231248777161 2.91368552752115 -1.06531870692397 1 1 1
0 0 0 151 151 151
-6.21024758431802 3.0922562943129 -1.09879568244258 100 100 100
-6.30573544580811 3.13980237628696 -1.11569060466693 100 100 100
-6.35491276699217 3.27439862447341 -1.13227265796119 72 72 72
0 0 0 7 7 7
-6.51078468070396 3.47059614786534 -1.16856545385052 1 1 1
-8.20515756146547 4.37378743453873 -1.47267405388873 4 4 4
-8.12771980222852 4.47934187016594 -1.46985823351801 3 3 3
-8.13463995531684 4.48315569891874 -1.47110970923833 6 6 6
-8.06862102116903 4.59293280014733 -1.47048397137817 3 3 3
-8.06690429329218 4.59195558040262 -1.47017110244809 4 4 4
-13.7769476075733 5.26090471770538 1.81073470431368 23 23 23
-13.8251641424766 5.27931682198057 1.81707191017075 28 28 28
-13.7934850185458 5.4863058897698 1.82267789996739 28 28 28
-13.8506658203076 5.50904933488653 1.8302337992585 26 26 26
-13.810913865476 5.71784400735175 1.83535231168152 28 28 28
-13.8439280022062 5.73151216035737 1.83973960804411 23 23 23
-13.807351306965 5.94067217467412 1.84558933652755 26 26 26
-13.8675259758939 5.96656258431018 1.85363271319229 26 26 26
-13.8336136043662 6.18228023638446 1.86045739642298 26 26 26
-13.8789221776806 6.20252876329519 1.86655086359324 24 24 24
-13.8227016006649 6.40748958962948 1.87069442126901 27 27 27
-13.8911397323685 6.4392139680537 1.87995649136781 24 24 24
-13.858922874452 6.66091414584366 1.88799986803254 33 33 33
-13.9036521633574 6.6824120613673 1.8940933352028 27 27 27
-13.8658595557955 6.90420001864961 1.90189297318073 27 27 27
-13.9049533543636 6.92366591643383 1.90725522429056 27 27 27
-13.8611091197714 7.14200151907627 1.91456738489487 27 27 27
-13.9264001493616 7.17564302845957 1.92358571630685 24 24 24
-13.8861664829991 7.40206876251706 1.93211657034521 24 24 24
-13.9282086169201 7.42447946647825 1.93796629882866 24 24 24
-13.877083993897 7.64792646427461 1.94552219811977 24 24 24
-13.9344560525037 7.67954530332761 1.95356557478451 25 25 25
-13.896255384533 7.91021997282978 1.96331512225693 25 25 25
-13.9583615538493 7.94557291125584 1.9720897149821 25 25 25
-6.04375720192238 2.30788645510861 -0.794344380314751 12 12 12
-6.00852204180071 2.29443145583059 -0.789713345265356 13 13 13
-5.96155971916823 2.37118756829848 -0.787763435770873 15 15 15
-5.95233700920665 2.367519270699 -0.786544742336822 17 17 17
-5.91319871212412 2.44811807167358 -0.785813526276391 52 52 52
-5.91319871212412 2.44811807167358 -0.785813526276391 41 41 41
-5.88617670613881 2.53255279712732 -0.786788481023632 83 83 83
-5.92082272764334 2.54745939661475 -0.791419516073028 97 97 97
0 0 0 5 5 5
-5.98435636337183 2.67442543436938 -0.804825143847594 2 2 2
-6.00274455179361 2.78256192862997 -0.812381043138713 2 2 2
-6.10179974241727 2.82847879213872 -0.825786670913279 2 2 2
-6.14401512404701 2.95295367632677 -0.836998650506553 2 2 2
-6.22452784407675 2.99164992426931 -0.847966891413016 2 2 2
-6.29410156947681 3.13400954325989 -0.863322428682065 2 2 2
-6.38650509336523 3.18001984711351 -0.8759968403962 2 2 2
-6.44969495006548 3.32323558908005 -0.890864900291628 1 1 1
-6.58557087651009 3.39324629779664 -0.909632779176021 2 2 2
-6.60061502560117 3.51848052190794 -0.918407371901191 2 2 2
-6.6794440267031 3.56050059183519 -0.929375612807655 1 1 1
-7.60266703900168 4.18997524784175 -1.06586927742142 4 4 4
-7.55746481100853 4.16506343525454 -1.05953207156435 4 4 4
-7.47344237440061 4.25413692393527 -1.0558759912622 4 4 4
-7.43548860426284 4.23253235045268 -1.05051374015237 4 4 4
-13.9125138289078 5.31267242370931 2.3587188638766 12 12 12
-14.0619916933648 5.3697524696465 2.38406124721312 18 18 18
-13.9572504675438 5.55144297051267 2.37905534433183 27 27 27
-14.0343420666544 5.58210585909256 2.39219583939521 19 19 19
-13.929483698664 5.76693299717171 2.38781567437408 27 27 27
-14.0170905143789 5.80320301602184 2.40283338301795 19 19 19
-13.9792947189881 6.01465156584879 2.41034223733988 22 22 22
-13.8958254099183 5.97873853728842 2.39595026655618 13 13 13
-13.8037807837261 6.16894786620892 2.39469879083585 21 21 21
0 0 0 10 10 10
-16.8483671756249 7.81003167100697 2.94128081168642 1 1 1
-13.8769180981665 6.43262155394181 2.42254412561302 1 1 1
-13.8462861137738 6.65484063069955 2.43318166923575 1 1 1
-13.9495501737711 6.70447169108024 2.45132806718042 30 30 30
-13.9005570217323 6.92147685922371 2.45946265936251 19 19 19
-13.767934991885 6.85544063425974 2.43599748960648 10 10 10
-14.0847624493076 7.25723994664306 2.50952168817538 13 13 13
-14.0391068173812 7.23371566804779 2.50138709599329 16 16 16
-13.9227944430475 7.42159342249009 2.49888414455265 14 14 14
-14.0047239959239 7.46526625219549 2.51358898426643 13 13 13
-13.9562187408637 7.69153913721342 2.52391365895908 14 14 14
-14.0565609606443 7.74683965412905 2.54206005690375 13 13 13
-14.0136496586814 7.97704477608567 2.55394907624681 13 13 13
-14.0857522295089 8.01808800536358 2.56708957131019 13 13 13
-6.03433164493124 2.30428718488895 -0.565117835975816 12 12 12
-6.01385735495769 2.29646881381129 -0.563200409635367 14 14 14
-5.96681219127278 2.37327671898116 -0.561805917751405 15 15 15
-5.94274499968527 2.36370408561263 -0.559539868439965 21 21 21
-5.9220492878223 2.451782290545 -0.560760048838433 42 42 42
-5.90916326201728 2.44644735861034 -0.559539868439965 92 92 92
0 0 0 54 54 54
-5.93343646556039 2.55288651150424 -0.565117835975816 1 1 1
-5.93541334127277 2.65255266223004 -0.568778377171217 1 1 1
