 9.00267721e-01 2.09552201e+01 3.32204230e+00
 1.14128612e+00 2.00986864e+01 3.18844727e+00
 1.13512669e+00 1.99902154e+01 3.17123948e+00
 1.82222039e+00 2.56725941e+01 4.07636929e+00
 1.53187350e+00 2.15820035e+01 3.42685339e+00
 1.83096344e+00 2.15785141e+01 3.42998208e+00
 2.06661877e+00 2.43557907e+01 3.87144014e+00
 2.14937666e+00 2.17258009e+01 3.45782742e+00
 2.20363617e+00 2.22742535e+01 3.54511785e+00
 2.46888268e+00 2.18727259e+01 3.48629849e+00
 2.49236842e+00 2.20807945e+01 3.51946259e+00
 2.75536183e+00 2.16891508e+01 3.46283332e+00
 2.86987814e+00 2.25905792e+01 3.60675303e+00
 -3.11205505e-01 1.16513226e+01 -1.01972219e+00
 -3.10939517e-01 1.16413642e+01 -1.01885063e+00
 -1.48218077e-01 1.16326175e+01 -1.01780476e+00
 -1.47938851e-01 1.16107030e+01 -1.01588734e+00
 1.41424826e-02 1.15757738e+01 -1.01274973e+00
 1.40986677e-02 1.15399108e+01 -1.00961212e+00
 1.75219609e-01 1.15385891e+01 -1.00961212e+00
 1.74554065e-01 1.14947615e+01 -1.00577727e+00
 2.99721046e-01 1.03421360e+01 -9.05199544e-01
 3.32792519e-01 1.14832960e+01 -1.00508003e+00
 4.92236758e-01 1.14576246e+01 -1.00333691e+00
 4.91894690e-01 1.14496624e+01 -1.00263966e+00
 6.49373171e-01 1.14358244e+01 -1.00211673e+00
 6.50615667e-01 1.14577055e+01 -1.00403416e+00
 8.10267738e-01 1.14155647e+01 -1.00124517e+00
 8.09703485e-01 1.14076152e+01 -1.00054793e+00
 9.65563276e-01 1.13794849e+01 -9.99153435e-01
 9.64721019e-01 1.13695586e+01 -9.98281877e-01
 1.12395927e+00 1.13609289e+01 -9.98804812e-01
 1.12278235e+00 1.13490326e+01 -9.97758943e-01
 1.27691756e+00 1.13126751e+01 -9.96015828e-01
 1.27557673e+00 1.13007962e+01 -9.94969959e-01
 1.41289765e+00 1.11217880e+01 -9.80850729e-01
 1.42896757e+00 1.12482842e+01 -9.92006664e-01
 -5.31849326e-01 1.99120773e+01 3.87189613e+00
 -5.30067059e-01 1.98453504e+01 3.85892112e+00
 -2.93702150e-01 2.30506617e+01 4.48095845e+00
 -2.54882040e-01 2.00039383e+01 3.88868733e+00
 2.41367807e-02 1.97562139e+01 3.84022184e+00
 2.44390001e-02 2.00035838e+01 3.88830571e+00
 3.10944192e-01 2.04763455e+01 3.98065726e+00
 3.01822447e-01 1.98756589e+01 3.86388216e+00
 5.77538839e-01 1.99284811e+01 3.87533070e+00
 5.78221308e-01 1.99520303e+01 3.87991011e+00
 9.49263546e-01 2.20956789e+01 4.29892667e+00
 9.62746206e-01 2.24095102e+01 4.35998554e+00
 1.14697085e+00 2.01987976e+01 3.93257339e+00
 1.15253597e+00 2.02968024e+01 3.95165429e+00
 1.45297257e+00 2.04703973e+01 3.98905286e+00
 1.55082895e+00 2.18490598e+01 4.25771192e+00
 1.84313167e+00 2.17219207e+01 4.23748617e+00
 1.82719681e+00 2.15341232e+01 4.20085084e+00
 2.12729545e+00 2.15026050e+01 4.20008761e+00
 2.21987899e+00 2.24384353e+01 4.38288262e+00
 2.51737079e+00 2.23022996e+01 4.36265687e+00
 2.49248775e+00 2.20818517e+01 4.31953404e+00
 2.76690636e+00 2.17800249e+01 4.26763399e+00
 2.75700953e+00 2.17021209e+01 4.25236927e+00
 0.00000000e+00 0.00000000e+00 0.00000000e+00
 0.00000000e+00 0.00000000e+00 0.00000000e+00
 0.00000000e+00 0.00000000e+00 0.00000000e+00
 0.00000000e+00 0.00000000e+00 0.00000000e+00
 0.00000000e+00 0.00000000e+00 0.00000000e+00
 0.00000000e+00 0.00000000e+00 0.00000000e+00
 0.00000000e+00 0.00000000e+00 0.00000000e+00
 0.00000000e+00 0.00000000e+00 0.00000000e+00
 0.00000000e+00 0.00000000e+00 0.00000000e+00
 0.00000000e+00 0.00000000e+00 0.00000000e+00
 0.00000000e+00 0.00000000e+00 0.00000000e+00
 0.00000000e+00 0.00000000e+00 0.00000000e+00
 0.00000000e+00 0.00000000e+00 0.00000000e+00
 0.00000000e+00 0.00000000e+00 0.00000000e+00
 0.00000000e+00 0.00000000e+00 0.00000000e+00
 0.00000000e+00 0.00000000e+00 0.00000000e+00
 0.00000000e+00 0.00000000e+00 0.00000000e+00
 0.00000000e+00 0.00000000e+00 0.00000000e+00
 0.00000000e+00 0.00000000e+00 0.00000000e+00
 1.35873317e+00 1.37340127e+01 -7.23282915e-01
 0.00000000e+00 0.00000000e+00 0.00000000e+00
 0.00000000e+00 0.00000000e+00 0.00000000e+00
 0.00000000e+00 0.00000000e+00 0.00000000e+00
 1.42012656e+00 1.11786912e+01 -5.90558930e-01
 -5.20580869e-01 1.94901939e+01 4.50127060e+00
 -5.25263756e-01 1.96655180e+01 4.54176179e+00
 -2.49050052e-01 1.95462257e+01 4.51296805e+00
 -2.49819721e-01 1.96066317e+01 4.52691502e+00
 2.39083412e-02 1.95692338e+01 4.51791698e+00
 2.38821520e-02 1.95477977e+01 4.51296805e+00
 2.95566952e-01 1.94637211e+01 4.49407216e+00
 3.07935256e-01 2.02782006e+01 4.68213125e+00
 5.73833644e-01 1.98006301e+01 4.57325493e+00
 5.88398236e-01 2.03031941e+01 4.68932968e+00
 8.69559360e-01 2.02404322e+01 4.67718232e+00
 9.91177224e-01 2.30712891e+01 5.33133999e+00
 1.15782527e+00 2.03899500e+01 4.71497410e+00
 1.15086506e+00 2.02673768e+01 4.68663027e+00
 1.45947744e+00 2.05620419e+01 4.75906451e+00
 1.46941149e+00 2.07019991e+01 4.79145746e+00
 1.81072274e+00 2.13399708e+01 4.94442417e+00
 1.88058138e+00 2.21632781e+01 5.13518267e+00
 2.13862017e+00 2.16170748e+01 5.01505881e+00
 2.15070711e+00 2.17392490e+01 5.04340264e+00
 3.89852023e+00 3.45384027e+01 8.02445401e+00
 2.50837734e+00 2.22226233e+01 5.16307660e+00
 2.91492660e+00 2.29451834e+01 5.33988813e+00
 2.92941651e+00 2.30592424e+01 5.36643235e+00
 -6.43914695e-01 2.41077285e+01 -4.20952043e-01
 -6.40924709e-01 2.39957855e+01 -4.18997374e-01
 -3.05675887e-01 2.39903980e+01 -4.18787945e-01
 -3.06414727e-01 2.40483844e+01 -4.19800184e-01
 2.95809119e-02 2.42122937e+01 -4.22627474e-01
 2.96615338e-02 2.42782836e+01 -4.23779333e-01
 1.96053483e-01 1.29105446e+01 -2.25380377e-01
 1.97996711e-01 1.30385104e+01 -2.27614285e-01
 7.23404875e-01 2.49617159e+01 -4.35891303e-01
 0.00000000e+00 0.00000000e+00 0.00000000e+00
 0.00000000e+00 0.00000000e+00 0.00000000e+00
 0.00000000e+00 0.00000000e+00 0.00000000e+00
 0.00000000e+00 0.00000000e+00 0.00000000e+00
 0.00000000e+00 0.00000000e+00 0.00000000e+00
 0.00000000e+00 0.00000000e+00 0.00000000e+00
 1.82568180e+00 2.57213607e+01 -4.50097562e-01
 2.19265686e+00 2.58411915e+01 -4.52680518e-01
 2.19181151e+00 2.58312289e+01 -4.52505994e-01
 2.57982032e+00 2.60767058e+01 -4.57392668e-01
 1.36255620e+00 1.37726557e+01 -2.41576210e-01
 1.55882388e+00 1.38101853e+01 -2.42588449e-01
 0.00000000e+00 0.00000000e+00 0.00000000e+00
 2.04609574e+00 1.61060804e+01 -2.83392176e-01
 0.00000000e+00 0.00000000e+00 0.00000000e+00
 -5.63781887e-01 2.11076106e+01 5.65778433e+00
 -6.85668126e-01 2.56709486e+01 6.88096313e+00
 -2.93902276e-01 2.30663683e+01 6.18111644e+00
 -3.48272105e-01 2.73334822e+01 7.32457898e+00
 2.49024855e-02 2.03829516e+01 5.46159949e+00
 2.50700598e-02 2.05201129e+01 5.49835179e+00
 3.07319876e-01 2.02376765e+01 5.42329427e+00
 3.11133141e-01 2.04887883e+01 5.49058722e+00
 6.62710004e-01 2.28673864e+01 6.12987026e+00
 5.94547465e-01 2.05153786e+01 5.49938707e+00
 8.66335224e-01 2.01653851e+01 5.40828277e+00
 8.68574031e-01 2.02174970e+01 5.42225899e+00
 1.17079077e+00 2.06182798e+01 5.53355118e+00
 1.52542319e+00 2.68635548e+01 7.20966332e+00
 1.63366672e+00 2.30161308e+01 6.18266935e+00
 1.63612871e+00 2.30508169e+01 6.19198684e+00
 1.94872679e+00 2.29663944e+01 6.17594005e+00
 2.20009637e+00 2.59288687e+01 6.97258508e+00
 2.26805662e+00 2.29254125e+01 6.17283423e+00
 2.26368217e+00 2.28811957e+01 6.16092855e+00
 2.60299690e+00 2.30608923e+01 6.21838638e+00
 2.61448103e+00 2.31626344e+01 6.24582120e+00
 2.85265840e+00 2.24550320e+01 6.06516550e+00
 2.85217147e+00 2.24511991e+01 6.06413023e+00
 -9.98098823e-01 5.09205632e+00 -1.39037591e+00
 -9.99585195e-01 5.09963943e+00 -1.39244646e+00
 -9.28975850e-01 5.11690028e+00 -1.39348174e+00
 -9.28630762e-01 5.11499950e+00 -1.39296410e+00
 -8.56743206e-01 5.11969552e+00 -1.39089355e+00
 -8.58018596e-01 5.12731695e+00 -1.39296410e+00
 -7.87515290e-01 5.14643546e+00 -1.39503465e+00
 -7.89852997e-01 5.16171245e+00 -1.39917576e+00
 -7.18238291e-01 5.17606441e+00 -1.40021103e+00
 -7.15848588e-01 5.15884276e+00 -1.39555229e+00
 -6.45608609e-01 5.17589025e+00 -1.39762284e+00
 -6.46804181e-01 5.18547523e+00 -1.40021103e+00
 -5.75459769e-01 5.19582036e+00 -1.40072867e+00
 -5.77161054e-01 5.21118125e+00 -1.40486978e+00
 -5.02692512e-01 5.21112796e+00 -1.40279922e+00
 -5.01950531e-01 5.20343625e+00 -1.40072867e+00
 -4.31431307e-01 5.22526477e+00 -1.40486978e+00
 -4.31749237e-01 5.22911537e+00 -1.40590505e+00
 -3.59225573e-01 5.24234315e+00 -1.40797561e+00
 -3.58961437e-01 5.23848848e+00 -1.40694033e+00
 -2.86278867e-01 5.23522390e+00 -1.40486978e+00
 -2.87122725e-01 5.25065566e+00 -1.40901088e+00
 -2.14098294e-01 5.26187373e+00 -1.41108143e+00
 -2.14255372e-01 5.26573423e+00 -1.41211671e+00
 -5.68732843e+00 2.90153600e+01 5.16102563e-01
 -5.59232166e+00 2.85306587e+01 5.07481074e-01
 -5.14770390e+00 2.83541144e+01 5.03013258e-01
 -5.16449261e+00 2.84465885e+01 5.04653785e-01
 -4.78499149e+00 2.85939816e+01 5.06049977e-01
 -4.79951347e+00 2.86807616e+01 5.07585789e-01
 -4.41009374e+00 2.88200916e+01 5.08912172e-01
 -4.42672989e+00 2.89288094e+01 5.10831936e-01
 -4.03695604e+00 2.90927743e+01 5.12681892e-01
 -4.05069840e+00 2.91918102e+01 5.14427132e-01
 -3.66020207e+00 2.93441010e+01 5.16172373e-01
 -3.67158761e+00 2.94353796e+01 5.17777994e-01
 -3.27970186e+00 2.96123946e+01 5.20046807e-01
 -3.29070831e+00 2.97117717e+01 5.21792048e-01
 -2.88052971e+00 2.98608165e+01 5.23642003e-01
 -2.89166627e+00 2.99762630e+01 5.25666482e-01
 -2.48796162e+00 3.01328577e+01 5.27760771e-01
 -2.49849267e+00 3.02604042e+01 5.29994679e-01
 -2.08504394e+00 3.04280001e+01 5.32368206e-01
 0.00000000e+00 0.00000000e+00 0.00000000e+00
 -5.46915900e-01 1.00015318e+01 1.74838208e-01
 0.00000000e+00 0.00000000e+00 0.00000000e+00
 -9.98333841e-01 2.45359574e+01 4.28631102e-01
 -1.01621930e+00 2.49755267e+01 4.36310161e-01
 -1.12115099e+00 5.71983838e+00 -1.34565721e+00
 -1.11702773e+00 5.69880254e+00 -1.34070828e+00
 -1.03874355e+00 5.72151277e+00 -1.34250789e+00
 -1.04083218e+00 5.73301715e+00 -1.34520730e+00
 -9.63939774e-01 5.76027695e+00 -1.34835662e+00
 -9.65869583e-01 5.77180904e+00 -1.35105603e+00
 -8.83419787e-01 5.77317416e+00 -1.34835662e+00
 -8.83714555e-01 5.77510048e+00 -1.34880652e+00
 -8.03798951e-01 5.79266686e+00 -1.35015623e+00
 -8.05673857e-01 5.80617858e+00 -1.35330554e+00
 -7.26267247e-01 5.82253631e+00 -1.35465525e+00
 -7.24820019e-01 5.81093378e+00 -1.35195584e+00
 -6.46348077e-01 5.83587017e+00 -1.35555505e+00
 -6.45919037e-01 5.83199638e+00 -1.35465525e+00
 -5.63596449e-01 5.84248449e+00 -1.35510515e+00
 -5.65093385e-01 5.85800238e+00 -1.35870437e+00
 -4.83469726e-01 5.85552621e+00 -1.35645486e+00
 -4.83630081e-01 5.85746835e+00 -1.35690476e+00
 -4.02865692e-01 5.87920336e+00 -1.36050398e+00
 -4.02865692e-01 5.87920336e+00 -1.36050398e+00
 -3.23256577e-01 5.91144076e+00 -1.36680261e+00
 -3.22405342e-01 5.89587409e+00 -1.36320339e+00
 -2.40450788e-01 5.90953651e+00 -1.36545290e+00
 -2.40767692e-01 5.91732503e+00 -1.36725251e+00
 -5.67617338e+00 2.89584497e+01 1.54652751e+00
 -5.58512411e+00 2.84939385e+01 1.52172026e+00
 -5.14428639e+00 2.83352904e+01 1.50926431e+00
 -5.15855724e+00 2.84138958e+01 1.51345118e+00
 -4.77784314e+00 2.85512648e+01 1.51711470e+00
 -4.79201779e+00 2.86359691e+01 1.52161559e+00
 -4.40955443e+00 2.88165672e+01 1.52779123e+00
 -4.42345135e+00 2.89073840e+01 1.53260614e+00
 -4.02984153e+00 2.90415029e+01 1.53658368e+00
 -4.04713581e+00 2.91661360e+01 1.54317801e+00
 -3.65623710e+00 2.93123135e+01 1.54809759e+00
 -3.67008086e+00 2.94233000e+01 1.55395921e+00
 -3.27548619e+00 2.95743313e+01 1.55940215e+00
 -3.28581965e+00 2.96676320e+01 1.56432173e+00
 -2.87951331e+00 2.98502801e+01 1.57164877e+00
 -2.89044453e+00 2.99635979e+01 1.57761506e+00
 -2.48739563e+00 3.01260028e+01 1.58420940e+00
 -2.49544865e+00 3.02235366e+01 1.58933832e+00
 -2.08195747e+00 3.03829580e+01 1.59603732e+00
 -6.86112034e-01 1.00127468e+01 5.25976360e-01
 -5.46685782e-01 9.99732361e+00 5.24720297e-01
 -1.68607797e+00 3.08335568e+01 1.61833244e+00
 -1.52563853e+00 3.74954754e+01 1.96668056e+00
 -1.50826205e+00 3.70684154e+01 1.94428077e+00
 -1.27073620e+00 6.48298560e+00 -1.28414454e+00
 -1.27791123e+00 6.51959087e+00 -1.29139528e+00
 -1.18675896e+00 6.53679779e+00 -1.29139528e+00
 -1.18535618e+00 6.52907108e+00 -1.28986881e+00
 -1.09846317e+00 6.56415705e+00 -1.29368499e+00
 -1.09522286e+00 6.54479376e+00 -1.28986881e+00
 -1.00700311e+00 6.58079481e+00 -1.29406661e+00
 -1.01234846e+00 6.61572678e+00 -1.30093573e+00
 -9.23927384e-01 6.65838583e+00 -1.30666000e+00
 -9.29863834e-01 6.70116751e+00 -1.31505560e+00
 0.00000000e+00 0.00000000e+00 0.00000000e+00
 -8.33736981e-01 6.68412882e+00 -1.30933133e+00
 -7.38257444e-01 6.66571891e+00 -1.30360706e+00
 -7.38905797e-01 6.67157288e+00 -1.30475191e+00
 -6.46591579e-01 6.70284790e+00 -1.30894971e+00
 -6.52246899e-01 6.76147339e+00 -1.32039825e+00
 -5.54436599e-01 6.71503895e+00 -1.30971294e+00
 -5.51367166e-01 6.67786361e+00 -1.30246220e+00
 -4.57136380e-01 6.67120034e+00 -1.29979088e+00
 -4.58478530e-01 6.69078696e+00 -1.30360706e+00
 -3.67363792e-01 6.71803590e+00 -1.30780485e+00
 -3.69829320e-01 6.76312339e+00 -1.31658207e+00
 -2.75125875e-01 6.76174287e+00 -1.31543721e+00
 -2.75046059e-01 6.75978124e+00 -1.31505560e+00
 -5.66463329e+00 2.88995749e+01 2.57649807e+00
 -5.57188982e+00 2.84264204e+01 2.53431469e+00
 -5.14064124e+00 2.83152125e+01 2.51775510e+00
 -5.15487730e+00 2.83936263e+01 2.52472756e+00
 -3.71588183e+00 2.22052342e+01 1.96971979e+00
 -3.71522415e+00 2.22013041e+01 1.96937116e+00
 0.00000000e+00 0.00000000e+00 0.00000000e+00
 -3.38770528e+00 2.21387531e+01 1.95943541e+00
 -3.04924243e+00 2.19747059e+01 1.94095839e+00
 -3.05115933e+00 2.19885203e+01 1.94217857e+00
 -3.66359863e+00 2.93713314e+01 2.58957143e+00
 0.00000000e+00 0.00000000e+00 0.00000000e+00
 0.00000000e+00 0.00000000e+00 0.00000000e+00
 0.00000000e+00 0.00000000e+00 0.00000000e+00
 0.00000000e+00 0.00000000e+00 0.00000000e+00
 -2.88722327e+00 2.99302049e+01 2.63070894e+00
 0.00000000e+00 0.00000000e+00 0.00000000e+00
 -2.50723447e+00 3.03662802e+01 2.66574555e+00
 -2.08682439e+00 3.04539830e+01 2.67062627e+00
 -6.83213310e-01 9.97044442e+00 8.74346411e-01
 0.00000000e+00 0.00000000e+00 0.00000000e+00
 0.00000000e+00 0.00000000e+00 0.00000000e+00
 -1.23136989e+00 3.02632626e+01 2.64988320e+00
 0.00000000e+00 0.00000000e+00 0.00000000e+00
 -1.51910039e+00 7.75007899e+00 -1.25084998e+00
 -1.51530073e+00 7.73069410e+00 -1.24772129e+00
 -1.41145003e+00 7.77442071e+00 -1.25147572e+00
 -1.41109717e+00 7.77247710e+00 -1.25116285e+00
 -1.30086446e+00 7.77365946e+00 -1.24834703e+00
 -1.29988636e+00 7.76781460e+00 -1.24740842e+00
 -1.19220042e+00 7.79106462e+00 -1.24834703e+00
 -1.19220042e+00 7.79106462e+00 -1.24834703e+00
 -1.08791954e+00 7.84021359e+00 -1.25366580e+00
 -1.08873405e+00 7.84608348e+00 -1.25460441e+00
 -9.81429405e-01 7.86818952e+00 -1.25585589e+00
 -9.80940402e-01 7.86426915e+00 -1.25523015e+00
 -8.72417257e-01 7.87704649e+00 -1.25523015e+00
 -8.73287065e-01 7.88489998e+00 -1.25648162e+00
 -7.61543690e-01 7.89449120e+00 -1.25616875e+00
 -7.61543690e-01 7.89449120e+00 -1.25616875e+00
 -6.51974522e-01 7.89636599e+00 -1.25491728e+00
 -6.52462162e-01 7.90227202e+00 -1.25585589e+00
 -5.41660484e-01 7.90469927e+00 -1.25491728e+00
 -5.42740834e-01 7.92046531e+00 -1.25742023e+00
 -4.32298081e-01 7.90549884e+00 -1.25397867e+00
 -4.32405940e-01 7.90747127e+00 -1.25429154e+00
 -3.21877942e-01 7.91076406e+00 -1.25397867e+00
 -3.22038560e-01 7.91471155e+00 -1.25460441e+00
 -5.63663182e+00 2.87567183e+01 3.59807049e+00
 -5.53735501e+00 2.82502323e+01 3.53469844e+00
 -5.10018325e+00 2.80923655e+01 3.50569353e+00
 -4.13142147e+00 2.27563200e+01 2.83979944e+00
 -3.86871092e+00 2.31185048e+01 2.87806641e+00
 -3.56925277e+00 2.13290135e+01 2.65528925e+00
 -3.35517999e+00 2.19261995e+01 2.72353609e+00
 -3.25819385e+00 2.12923922e+01 2.64480849e+00
 -2.98923625e+00 2.15422647e+01 2.67040105e+00
 -2.93275835e+00 2.11352504e+01 2.61994714e+00
 -2.64967349e+00 2.12426213e+01 2.62847800e+00
 -3.07572447e+00 2.46583024e+01 3.05112088e+00
 -2.39412119e+00 2.16164957e+01 2.67040105e+00
 -2.38734702e+00 2.15553318e+01 2.66284515e+00
 -2.10907234e+00 2.18635559e+01 2.69696857e+00
 0.00000000e+00 0.00000000e+00 0.00000000e+00
 -8.10196610e-01 9.81266713e+00 1.20894389e+00
 -8.18363915e-01 9.91158514e+00 1.22113082e+00
 -6.75554151e-01 9.85867080e+00 1.21333118e+00
 -6.83425211e-01 9.97353680e+00 1.22746803e+00
 -1.58985413e+00 2.90738972e+01 3.57515906e+00
 -1.59700782e+00 2.92047178e+01 3.59124581e+00
 -1.19361003e+00 2.93352420e+01 3.60489518e+00
 -1.19812945e+00 2.94463153e+01 3.61854454e+00
 -1.82898431e+00 9.33103106e+00 -1.16750831e+00
 -1.82592964e+00 9.31544688e+00 -1.16555840e+00
 -1.69143253e+00 9.31659483e+00 -1.16263354e+00
 -1.68575896e+00 9.28534420e+00 -1.15873372e+00
 -1.55823079e+00 9.31162000e+00 -1.15922119e+00
 -1.57002564e+00 9.38210325e+00 -1.16799579e+00
 -1.43557505e+00 9.38152493e+00 -1.16531466e+00
 -1.43497451e+00 9.37760043e+00 -1.16482718e+00
 -1.30253869e+00 9.38689045e+00 -1.16360849e+00
 -1.30281153e+00 9.38885670e+00 -1.16385223e+00
 -1.17225447e+00 9.39804766e+00 -1.16287727e+00
 -1.16979743e+00 9.37834939e+00 -1.16043989e+00
 -1.03994366e+00 9.38964065e+00 -1.15995241e+00
 -1.03906957e+00 9.38174854e+00 -1.15897746e+00
 -9.06529421e-01 9.39747597e+00 -1.15922119e+00
 -9.06148205e-01 9.39352413e+00 -1.15873372e+00
 -7.75077201e-01 9.38731966e+00 -1.15654007e+00
 -7.74097124e-01 9.37544950e+00 -1.15507764e+00
 -6.43391368e-01 9.38930460e+00 -1.15556511e+00
 -6.42712828e-01 9.37940236e+00 -1.15434642e+00
 -5.13006517e-01 9.38142592e+00 -1.15361520e+00
 -5.13331685e-01 9.38737231e+00 -1.15434642e+00
 -3.82536278e-01 9.40155830e+00 -1.15532138e+00
 -3.83504724e-01 9.42535972e+00 -1.15824624e+00
 -5.60752463e+00 2.86082205e+01 4.61731967e+00
 -5.51785288e+00 2.81507371e+01 4.54348260e+00
 -5.09639321e+00 2.80714896e+01 4.51876596e+00
 -5.11403634e+00 2.81686698e+01 4.53440940e+00
 -3.63850810e+00 2.17428671e+01 3.49161726e+00
 -3.63622588e+00 2.17292291e+01 3.48942718e+00
 -3.33726478e+00 2.18091230e+01 3.49443308e+00
 -3.29871995e+00 2.15572314e+01 3.45407299e+00
 -3.01777531e+00 2.17479346e+01 3.47753816e+00
 -3.11035843e+00 2.24151452e+01 3.58422646e+00
 -2.78585118e+00 2.23343676e+01 3.56482859e+00
 -2.69049556e+00 2.15698947e+01 3.44280971e+00
 -2.42654640e+00 2.19092627e+01 3.49130439e+00
 -2.41175967e+00 2.17757534e+01 3.47002930e+00
 -2.01510340e+00 2.08894332e+01 3.32391951e+00
 0.00000000e+00 0.00000000e+00 0.00000000e+00
 0.00000000e+00 0.00000000e+00 0.00000000e+00
 -8.12733136e-01 9.84338817e+00 1.56434465e+00
 -6.74813622e-01 9.84786394e+00 1.56340604e+00
 -6.71842660e-01 9.80450732e+00 1.55652293e+00
 0.00000000e+00 0.00000000e+00 0.00000000e+00
 -1.29031486e+00 2.35961783e+01 3.74285101e+00
 -9.05964338e-01 2.22658008e+01 3.52947440e+00
 -8.54646971e-01 2.10045786e+01 3.32955115e+00
 -2.46076790e+00 1.25542366e+01 -1.11925405e+00
 -2.46689970e+00 1.25855195e+01 -1.12204303e+00
 -2.29378516e+00 1.26344188e+01 -1.12343752e+00
 -2.29947958e+00 1.26657843e+01 -1.12622651e+00
 -2.12660246e+00 1.27080752e+01 -1.12727238e+00
 -2.00953574e+00 1.20085121e+01 -1.06521749e+00
 -1.83142825e+00 1.19684372e+01 -1.05929090e+00
 -1.82419536e+00 1.19211701e+01 -1.05510742e+00
 -1.65675049e+00 1.19395573e+01 -1.05458449e+00
 -1.65401206e+00 1.19198225e+01 -1.05284137e+00
 -1.48457618e+00 1.19019531e+01 -1.04935514e+00
 -1.48260332e+00 1.18861365e+01 -1.04796065e+00
 -1.31331654e+00 1.18579216e+01 -1.04377718e+00
 -1.31112329e+00 1.18381188e+01 -1.04203406e+00
 -1.14019684e+00 1.18197735e+01 -1.03889645e+00
 -1.13579675e+00 1.17741603e+01 -1.03488729e+00
 -9.71383263e-01 1.17648735e+01 -1.03279555e+00
 -9.70563530e-01 1.17549453e+01 -1.03192399e+00
 -6.87163307e-01 1.00280885e+01 -8.79401444e-01
 -6.83213310e-01 9.97044442e+00 -8.74346411e-01
 -5.46114379e-01 9.98687427e+00 -8.75043657e-01
 -6.38910308e-01 1.16838471e+01 -1.02373135e+00
 -4.74906044e-01 1.16717214e+01 -1.02198824e+00
 -4.75149045e-01 1.16776936e+01 -1.02251117e+00
 -5.59199455e+00 2.85289898e+01 5.65099921e+00
 -5.50060728e+00 2.80627543e+01 5.55864765e+00
 -5.09247250e+00 2.80498938e+01 5.54147484e+00
 -5.11070875e+00 2.81503411e+01 5.56131898e+00
 -4.73700090e+00 2.83072012e+01 5.57887341e+00
 -4.77750470e+00 2.85492424e+01 5.62657566e+00
 -4.38971395e+00 2.86869091e+01 5.64107714e+00
 -4.41079836e+00 2.88246964e+01 5.66817202e+00
 -3.49575913e+00 2.51925784e+01 4.94386107e+00
 -3.45204528e+00 2.48775496e+01 4.88203896e+00
 -2.89633083e+00 2.32200908e+01 4.54850483e+00
 -2.75782017e+00 2.21096409e+01 4.33098258e+00
 -2.26339877e+00 2.04362044e+01 3.99668522e+00
 -2.25669913e+00 2.03757134e+01 3.98485506e+00
 -1.95391304e+00 2.02551074e+01 3.95547047e+00
 -1.99086113e+00 2.06381273e+01 4.03026760e+00
 -1.69820441e+00 2.05677417e+01 4.01156832e+00
 -1.67251810e+00 2.02566428e+01 3.95089106e+00
 -1.39073610e+00 2.02956483e+01 3.95432562e+00
 -1.37516716e+00 2.00684435e+01 3.91005793e+00
 -1.09029972e+00 1.99384719e+01 3.88143658e+00
 -1.08225995e+00 1.97914475e+01 3.85281523e+00
 -8.06780487e-01 1.98281685e+01 3.85739465e+00
 -8.17874916e-01 2.01008353e+01 3.91043955e+00
 0.00000000e+00 0.00000000e+00 0.00000000e+00
 0.00000000e+00 0.00000000e+00 0.00000000e+00
 0.00000000e+00 0.00000000e+00 0.00000000e+00
 0.00000000e+00 0.00000000e+00 0.00000000e+00
 0.00000000e+00 0.00000000e+00 0.00000000e+00
 0.00000000e+00 0.00000000e+00 0.00000000e+00
 0.00000000e+00 0.00000000e+00 0.00000000e+00
 0.00000000e+00 0.00000000e+00 0.00000000e+00
 0.00000000e+00 0.00000000e+00 0.00000000e+00
 0.00000000e+00 0.00000000e+00 0.00000000e+00
 0.00000000e+00 0.00000000e+00 0.00000000e+00
 0.00000000e+00 0.00000000e+00 0.00000000e+00
 0.00000000e+00 0.00000000e+00 0.00000000e+00
 0.00000000e+00 0.00000000e+00 0.00000000e+00
 0.00000000e+00 0.00000000e+00 0.00000000e+00
 0.00000000e+00 0.00000000e+00 0.00000000e+00
 0.00000000e+00 0.00000000e+00 0.00000000e+00
 -1.00038171e+00 1.21160871e+01 -6.37137931e-01
 -6.85565876e-01 1.00047765e+01 -5.25557673e-01
 -6.83654320e-01 9.97688028e+00 -5.24092266e-01
 -5.47012943e-01 1.00033064e+01 -5.25034313e-01
 0.00000000e+00 0.00000000e+00 0.00000000e+00
 0.00000000e+00 0.00000000e+00 0.00000000e+00
 0.00000000e+00 0.00000000e+00 0.00000000e+00
 -4.42088088e+00 2.25542541e+01 5.30614547e+00
 -4.34853647e+00 2.21851705e+01 5.21931436e+00
 -3.99902344e+00 2.20270572e+01 5.16847542e+00
 -4.01051089e+00 2.20903313e+01 5.18332219e+00
 -3.67982481e+00 2.19897660e+01 5.14733003e+00
 -3.97412074e+00 2.37484091e+01 5.55899045e+00
 -3.38953758e+00 2.21507273e+01 5.17342435e+00
 -3.37656779e+00 2.20659693e+01 5.15362866e+00
 -3.24198017e+00 2.33636920e+01 5.44561512e+00
 -2.98351100e+00 2.15010051e+01 5.01145959e+00
 -2.65445734e+00 2.12809738e+01 4.95117271e+00
 -2.70028623e+00 2.16483872e+01 5.03665411e+00
 -2.36550954e+00 2.13581614e+01 4.96107055e+00
 -2.38417276e+00 2.15266715e+01 5.00021204e+00
 -2.11404803e+00 2.19151361e+01 5.08299402e+00
 -2.02048953e+00 2.09452681e+01 4.85804297e+00
 -1.71948454e+00 2.08254752e+01 4.82430031e+00
 -1.74449988e+00 2.11284477e+01 4.89448504e+00
 -1.43933893e+00 2.10049316e+01 4.86074238e+00
 -1.43401002e+00 2.09271643e+01 4.84274630e+00
 -1.13682465e+00 2.07892801e+01 4.80675413e+00
 -1.06361842e+00 1.94505470e+01 4.49722148e+00
 -7.86000747e-01 1.93174668e+01 4.46347882e+00
 -7.87743718e-01 1.93603036e+01 4.47337667e+00
 -4.45608683e+00 2.27338662e+01 -4.04372257e-01
 -4.42993112e+00 2.26004262e+01 -4.01998730e-01
 -4.07822743e+00 2.24633214e+01 -3.98508249e-01
 -5.17592322e+00 2.85095495e+01 -5.05770739e-01
 -4.79555293e+00 2.86570943e+01 -5.07166931e-01
 -4.81304531e+00 2.87616247e+01 -5.09016886e-01
 -4.42582247e+00 2.89228793e+01 -5.10727222e-01
 -3.60157655e+00 2.35364082e+01 -4.15611607e-01
 -3.25391630e+00 2.34497110e+01 -4.13238080e-01
 -3.24457149e+00 2.33823666e+01 -4.12051316e-01
 -2.90801421e+00 2.33137573e+01 -4.10096646e-01
 -3.68421070e+00 2.95365799e+01 -5.19558140e-01
 -3.28696612e+00 2.96779835e+01 -5.21198666e-01
 -2.69856132e+00 2.43652826e+01 -4.27898101e-01
 -2.35039089e+00 2.43651683e+01 -4.27269814e-01
 -2.36728775e+00 2.45403284e+01 -4.30341438e-01
 -2.00172309e+00 2.42437972e+01 -4.24617049e-01
 -1.00143746e+00 1.21288738e+01 -2.12430691e-01
 -6.86675563e-01 1.00209707e+01 -1.75326875e-01
 -6.81344019e-01 9.94316500e+00 -1.73965587e-01
 0.00000000e+00 0.00000000e+00 0.00000000e+00
 -1.37586090e+00 2.51605714e+01 -4.39835547e-01
 -9.91260955e-01 2.43621277e+01 -4.25594383e-01
 -9.75489231e-01 2.39745075e+01 -4.18822850e-01
 -5.56534850e+00 2.83930482e+01 7.75266568e+00
 -5.48136848e+00 2.79646027e+01 7.63567947e+00
 -5.08969718e+00 2.80346071e+01 7.63464419e+00
 -5.10384577e+00 2.81125391e+01 7.65586735e+00
 -3.75187842e+00 2.24203413e+01 6.09104741e+00
 -3.74613916e+00 2.23860449e+01 6.08172992e+00
 -3.50714601e+00 2.29193018e+01 6.21269236e+00
 -3.52643210e+00 2.30453370e+01 6.24685647e+00
 -3.08908846e+00 2.22618608e+01 6.02220154e+00
 -3.15042415e+00 2.27038833e+01 6.14177594e+00
 -2.72614213e+00 2.18556758e+01 5.90159187e+00
 -2.68668827e+00 2.15393714e+01 5.81618158e+00
 -2.41837712e+00 2.18355023e+01 5.88658036e+00
 -2.42496960e+00 2.18950257e+01 5.90262714e+00
 -2.10908261e+00 2.18636623e+01 5.88554509e+00
 -2.06734614e+00 2.14310041e+01 5.76907652e+00
 -1.72779178e+00 2.09260880e+01 5.62620840e+00
 -1.72381765e+00 2.08779555e+01 5.61326745e+00
 -1.45710873e+00 2.12642544e+01 5.71110105e+00
 -1.73920646e+00 2.53810356e+01 6.81677601e+00
 -1.18783578e+00 2.17221284e+01 5.82912253e+00
 -1.21241315e+00 2.21715783e+01 5.94973221e+00
 -9.12391737e-01 2.24237664e+01 6.01340169e+00
 -8.62048008e-01 2.11864732e+01 5.68159568e+00
 -1.81682304e+00 4.82335233e+00 -1.38105842e+00
 -1.82090885e+00 4.83419945e+00 -1.38416425e+00
 -1.75061275e+00 4.85188335e+00 -1.38209370e+00
 -1.74667879e+00 4.84098024e+00 -1.37898787e+00
 -1.67976695e+00 4.86460270e+00 -1.37898787e+00
 -1.68481129e+00 4.87921112e+00 -1.38312898e+00
 -1.62186751e+00 4.91270138e+00 -1.38623481e+00
 -1.62065626e+00 4.90903245e+00 -1.38519953e+00
 -1.54761901e+00 4.92039555e+00 -1.38209370e+00
 -1.54645975e+00 4.91670986e+00 -1.38105842e+00
 -1.48295616e+00 4.95236987e+00 -1.38519953e+00
 -1.48184782e+00 4.94866854e+00 -1.38416425e+00
 -1.41068601e+00 4.96540584e+00 -1.38312898e+00
 -1.40857421e+00 4.95797260e+00 -1.38105842e+00
 -1.34322843e+00 4.99208009e+00 -1.38519953e+00
 -1.34473429e+00 4.99767659e+00 -1.38675244e+00
 -1.27665255e+00 5.01948678e+00 -1.38778772e+00
 -1.27522400e+00 5.01387004e+00 -1.38623481e+00
 -1.20597322e+00 5.03097581e+00 -1.38623481e+00
 -1.20597322e+00 5.03097581e+00 -1.38623481e+00
 -1.13730849e+00 5.05486238e+00 -1.38830536e+00
 -1.13815659e+00 5.05863185e+00 -1.38934063e+00
 -1.06980230e+00 5.08537274e+00 -1.39244646e+00
 -1.06821151e+00 5.07781085e+00 -1.39037591e+00
 -9.62869819e+00 2.55625357e+01 4.76799744e-01
 0.00000000e+00 0.00000000e+00 0.00000000e+00
 -1.01008839e+01 2.79949466e+01 5.19488330e-01
 -1.01253166e+01 2.80626626e+01 5.20744903e-01
 -9.76811184e+00 2.82884381e+01 5.22385429e-01
 -9.80009350e+00 2.83810569e+01 5.24095765e-01
 -9.32193008e+00 2.82364981e+01 5.19034567e-01
 -9.34700588e+00 2.83124537e+01 5.20430760e-01
 -9.11142411e+00 2.89682476e+01 5.30064488e-01
 -9.16302311e+00 2.91322979e+01 5.33066302e-01
 0.00000000e+00 0.00000000e+00 0.00000000e+00
 -8.93945852e+00 2.98535495e+01 5.43956604e-01
 0.00000000e+00 0.00000000e+00 0.00000000e+00
 0.00000000e+00 0.00000000e+00 0.00000000e+00
 -9.32960882e+00 3.46732941e+01 6.26750820e-01
 -9.12177614e+00 3.39008884e+01 6.12788895e-01
 0.00000000e+00 0.00000000e+00 0.00000000e+00
 -8.32817565e+00 3.27443575e+01 5.89751718e-01
 -7.72488618e+00 3.22260186e+01 5.78442559e-01
 0.00000000e+00 0.00000000e+00 0.00000000e+00
 -6.97658336e+00 3.10080062e+01 5.54777096e-01
 -6.84490002e+00 3.04227287e+01 5.44305652e-01
 -6.30666965e+00 2.99791522e+01 5.34741733e-01
 -6.20087239e+00 2.94762383e+01 5.25771196e-01
 -2.03672154e+00 5.40714497e+00 -1.33395975e+00
 -2.03878230e+00 5.41261595e+00 -1.33530946e+00
 -1.96036608e+00 5.43322191e+00 -1.33350985e+00
 -1.96301165e+00 5.44055419e+00 -1.33530946e+00
 -1.89099280e+00 5.47631247e+00 -1.33755897e+00
 -1.88781252e+00 5.46710239e+00 -1.33530946e+00
 -1.81382404e+00 5.49414536e+00 -1.33575936e+00
 -1.81810048e+00 5.50709889e+00 -1.33890868e+00
 -1.74357482e+00 5.54340424e+00 -1.34160809e+00
 -1.74182072e+00 5.53782738e+00 -1.34025838e+00
 -1.66138835e+00 5.54824874e+00 -1.33710907e+00
 -1.66474244e+00 5.55944978e+00 -1.33980848e+00
 -1.58598383e+00 5.58242819e+00 -1.33980848e+00
 -1.58917923e+00 5.59367553e+00 -1.34250789e+00
 -1.50940539e+00 5.60967326e+00 -1.34115819e+00
 -1.50788637e+00 5.60402783e+00 -1.33980848e+00
 -1.43239797e+00 5.63183982e+00 -1.34160809e+00
 -1.43287832e+00 5.63372843e+00 -1.34205799e+00
 -1.36006305e+00 5.67379457e+00 -1.34700691e+00
 -1.35597469e+00 5.65673908e+00 -1.34295779e+00
 -1.27472331e+00 5.66561398e+00 -1.34070828e+00
 -1.27515106e+00 5.66751519e+00 -1.34115819e+00
 -1.19709942e+00 5.69048764e+00 -1.34250789e+00
 -1.19709942e+00 5.69048764e+00 -1.34250789e+00
 -7.52953611e+00 1.99896218e+01 1.11946610e+00
 -9.59091822e+00 2.54622364e+01 1.42594546e+00
 -7.19615258e+00 1.99443840e+01 1.11119702e+00
 0.00000000e+00 0.00000000e+00 0.00000000e+00
 -9.76142603e+00 2.82690760e+01 1.56735722e+00
 -9.79793197e+00 2.83747971e+01 1.57321884e+00
 -9.43955580e+00 2.85927910e+01 1.57803375e+00
 -9.47211462e+00 2.86914130e+01 1.58347669e+00
 -9.09792621e+00 2.89253333e+01 1.58912898e+00
 -9.14886309e+00 2.90872785e+01 1.59802609e+00
 -9.73468202e+00 3.25092186e+01 1.77848047e+00
 -9.76103688e+00 3.25972314e+01 1.78329537e+00
 -9.31016086e+00 3.27703874e+01 1.78538881e+00
 -8.45648837e+00 2.97655866e+01 1.62168194e+00
 -8.89062843e+00 3.30418328e+01 1.79323920e+00
 -8.91294322e+00 3.31247653e+01 1.79774010e+00
 0.00000000e+00 0.00000000e+00 0.00000000e+00
 -8.29292136e+00 3.26057462e+01 1.76319837e+00
 -7.69638610e+00 3.21071244e+01 1.73033139e+00
 -7.51481266e+00 3.13496519e+01 1.68950934e+00
 -6.95317753e+00 3.09039771e+01 1.66009653e+00
 -6.83086123e+00 3.03603321e+01 1.63089307e+00
 -6.29281853e+00 2.99133101e+01 1.60200362e+00
 -6.18879481e+00 2.94188267e+01 1.57552163e+00
 -2.34185475e+00 6.21722113e+00 -1.29139528e+00
 -2.34116272e+00 6.21538389e+00 -1.29101366e+00
 -2.25482052e+00 6.24931250e+00 -1.29139528e+00
 -2.25282156e+00 6.24377232e+00 -1.29025043e+00
 -2.16331642e+00 6.26496130e+00 -1.28834234e+00
 -2.16652039e+00 6.27423997e+00 -1.29025043e+00
 -2.08398483e+00 6.31247318e+00 -1.29215852e+00
 -2.07844559e+00 6.29569460e+00 -1.28872395e+00
 -1.98688136e+00 6.31695663e+00 -1.28719748e+00
 -1.98923757e+00 6.32444784e+00 -1.28872395e+00
 -1.89847006e+00 6.33998914e+00 -1.28643425e+00
 -1.90241230e+00 6.35315435e+00 -1.28910557e+00
 -1.80865385e+00 6.36619370e+00 -1.28643425e+00
 -1.81187305e+00 6.37752480e+00 -1.28872395e+00
 -1.72367251e+00 6.40599250e+00 -1.28948719e+00
 -1.71959161e+00 6.39082590e+00 -1.28643425e+00
 -1.63615285e+00 6.43295435e+00 -1.29025043e+00
 -1.63034574e+00 6.41012222e+00 -1.28567101e+00
 -1.53906428e+00 6.42053655e+00 -1.28338130e+00
 -1.53448782e+00 6.40144486e+00 -1.27956512e+00
 -1.44323633e+00 6.41458417e+00 -1.27803865e+00
 -1.44926957e+00 6.44139939e+00 -1.28338130e+00
 -1.35838400e+00 6.45716407e+00 -1.28261807e+00
 -1.35757568e+00 6.45332166e+00 -1.28185483e+00
 0.00000000e+00 0.00000000e+00 0.00000000e+00
 -7.47044393e+00 1.98327423e+01 1.85415127e+00
 0.00000000e+00 0.00000000e+00 0.00000000e+00
 -1.01207811e+01 2.80500924e+01 2.60892000e+00
 -9.76949075e+00 2.82924314e+01 2.61868145e+00
 -9.80460707e+00 2.83941282e+01 2.62809427e+00
 -9.44964453e+00 2.86233502e+01 2.63715846e+00
 -9.48025016e+00 2.87160559e+01 2.64569973e+00
 -9.10682926e+00 2.89536390e+01 2.65546117e+00
 -9.13074111e+00 2.90296627e+01 2.66243363e+00
 -8.75991329e+00 2.92539536e+01 2.67167214e+00
 -8.79020463e+00 2.93551123e+01 2.68091065e+00
 -8.40265572e+00 2.95761037e+01 2.68997484e+00
 -8.42824701e+00 2.96661812e+01 2.69816748e+00
 -8.03858737e+00 2.98752402e+01 2.70670875e+00
 -8.05515324e+00 2.99368069e+01 2.71228671e+00
 -7.68484636e+00 3.02149435e+01 2.72762613e+00
 -7.71283947e+00 3.03250056e+01 2.73756188e+00
 -7.31814610e+00 3.05292152e+01 2.74662608e+00
 -7.34415462e+00 3.06377153e+01 2.75638752e+00
 -6.93403774e+00 3.08189087e+01 2.76370860e+00
 -6.81551840e+00 3.02921396e+01 2.71647019e+00
 -6.28198726e+00 2.98618229e+01 2.66975471e+00
 -6.17165463e+00 2.93373498e+01 2.62286492e+00
 -2.80404243e+00 7.44424983e+00 -1.25992318e+00
 -2.80961292e+00 7.45903851e+00 -1.26242613e+00
 -2.70586504e+00 7.49939788e+00 -1.26273900e+00
 -2.70519461e+00 7.49753976e+00 -1.26242613e+00
 -2.60285341e+00 7.53785978e+00 -1.26305187e+00
 -2.59898491e+00 7.52665662e+00 -1.26117466e+00
 -2.50185603e+00 7.57822172e+00 -1.26399048e+00
 -2.50928729e+00 7.60073129e+00 -1.26774490e+00
 -2.39743847e+00 7.62225425e+00 -1.26555482e+00
 -2.39625309e+00 7.61848552e+00 -1.26492908e+00
 -2.29325081e+00 7.65836951e+00 -1.26618056e+00
 -2.29211750e+00 7.65458479e+00 -1.26555482e+00
 -2.18961622e+00 7.70712482e+00 -1.26899638e+00
 -2.18907638e+00 7.70522464e+00 -1.26868351e+00
 -2.07666189e+00 7.71787007e+00 -1.26586769e+00
 -2.08641389e+00 7.75411315e+00 -1.27181220e+00
 -1.98417359e+00 7.80128713e+00 -1.27494089e+00
 0.00000000e+00 0.00000000e+00 0.00000000e+00
 -1.86997685e+00 7.80100929e+00 -1.27056073e+00
 -1.85708364e+00 7.74722248e+00 -1.26180040e+00
 -1.74960171e+00 7.77625065e+00 -1.26242613e+00
 -1.74266401e+00 7.74541545e+00 -1.25742023e+00
 -1.63231797e+00 7.75932652e+00 -1.25585589e+00
 -1.62906472e+00 7.74386199e+00 -1.25335293e+00
 -9.90195312e+00 2.62879805e+01 3.44914616e+00
 0.00000000e+00 0.00000000e+00 0.00000000e+00
 -9.60536575e+00 2.66216010e+01 3.47498246e+00
 -9.63500986e+00 2.67037607e+01 3.48570696e+00
 -9.29830755e+00 2.69278855e+01 3.49789389e+00
 -9.32292853e+00 2.69991879e+01 3.50715596e+00
 -8.98937047e+00 2.72291617e+01 3.52080533e+00
 -9.02297559e+00 2.73309530e+01 3.53396722e+00
 -8.66608052e+00 2.75523522e+01 3.54639789e+00
 -8.70955982e+00 2.76905873e+01 3.56419082e+00
 -8.34915164e+00 2.78822046e+01 3.57369663e+00
 -8.38047093e+00 2.79867962e+01 3.58710225e+00
 -9.57623417e+00 3.37069260e+01 4.30247530e+00
 -9.59467922e+00 3.37718498e+01 4.31076241e+00
 -9.13872050e+00 3.39638618e+01 4.31856205e+00
 -9.03556303e+00 3.35804792e+01 4.26981432e+00
 -8.42980830e+00 3.31439523e+01 4.19913010e+00
 -8.24191380e+00 3.24051969e+01 4.10553444e+00
 -7.64811357e+00 3.19057452e+01 4.02851302e+00
 -7.49263402e+00 3.12571289e+01 3.94661682e+00
 -6.89513404e+00 3.06459980e+01 3.85692098e+00
 -6.76571955e+00 3.00708045e+01 3.78453059e+00
 -6.23405155e+00 2.96339575e+01 3.71823367e+00
 -6.13107017e+00 2.91444290e+01 3.65681152e+00
 -3.38042086e+00 8.97443529e+00 -1.17750160e+00
 -3.39021715e+00 9.00044276e+00 -1.18091394e+00
 -3.26422088e+00 9.04690026e+00 -1.18091394e+00
 -3.26758953e+00 9.05623659e+00 -1.18213263e+00
 -3.14241458e+00 9.10042818e+00 -1.18213263e+00
 -3.13787914e+00 9.08729354e+00 -1.18042646e+00
 -3.00641390e+00 9.10654762e+00 -1.17750160e+00
 -3.01139243e+00 9.12162780e+00 -1.17945151e+00
 -2.87559015e+00 9.14245748e+00 -1.17677038e+00
 -2.87499455e+00 9.14056385e+00 -1.17652664e+00
 -2.74413871e+00 9.16412114e+00 -1.17457673e+00
 -2.74015262e+00 9.15080949e+00 -1.17287056e+00
 -2.59478405e+00 9.13325556e+00 -1.16580214e+00
 -2.59424155e+00 9.13134603e+00 -1.16555840e+00
 -2.46804253e+00 9.17242795e+00 -1.16628962e+00
 -2.47062147e+00 9.18201252e+00 -1.16750831e+00
 -2.34280950e+00 9.21135614e+00 -1.16702083e+00
 -2.34868121e+00 9.23444225e+00 -1.16994570e+00
 -2.22576393e+00 9.28525136e+00 -1.17238308e+00
 -2.22807762e+00 9.29490339e+00 -1.17360178e+00
 -2.09808332e+00 9.32510618e+00 -1.17360178e+00
 -2.09459740e+00 9.30961275e+00 -1.17165187e+00
 -1.96114149e+00 9.32240985e+00 -1.16970196e+00
 -1.96481940e+00 9.33989301e+00 -1.17189561e+00
 -9.90989122e+00 2.63090548e+01 4.45275061e+00
 -9.94052888e+00 2.63903925e+01 4.46651685e+00
 -9.60193239e+00 2.66120853e+01 4.48090882e+00
 -9.63143141e+00 2.66938429e+01 4.49467505e+00
 -9.29728663e+00 2.69249289e+01 4.51156997e+00
 -9.32823460e+00 2.70145542e+01 4.52658768e+00
 -8.99305775e+00 2.72403307e+01 4.54348260e+00
 -9.01906714e+00 2.73191141e+01 4.55662310e+00
 -8.66693269e+00 2.75550615e+01 4.57508236e+00
 -8.69953074e+00 2.76587016e+01 4.59229016e+00
 -8.34625430e+00 2.78725289e+01 4.60824647e+00
 -8.37855361e+00 2.79803933e+01 4.62608000e+00
 -8.66831058e+00 3.05111694e+01 5.02373641e+00
 -8.66831058e+00 3.05111694e+01 5.02373641e+00
 -8.24351623e+00 3.06368540e+01 5.02498789e+00
 -8.14907584e+00 3.02858683e+01 4.96742000e+00
 0.00000000e+00 0.00000000e+00 0.00000000e+00
 -7.75897085e+00 3.05063829e+01 4.98556640e+00
 -7.35880328e+00 3.06988253e+01 4.99995837e+00
 -7.37445933e+00 3.07641379e+01 5.01059592e+00
 -6.86919215e+00 3.05306971e+01 4.95646959e+00
 -6.74041106e+00 2.99583188e+01 4.86354752e+00
 -6.21004678e+00 2.95198493e+01 4.77782143e+00
 -6.10512948e+00 2.90211183e+01 4.69710125e+00
 -4.55235664e+00 1.20857230e+01 -1.12988705e+00
 -4.55516587e+00 1.20931810e+01 -1.13058429e+00
 -4.38316985e+00 1.21481058e+01 -1.12988705e+00
 -4.37911261e+00 1.21368610e+01 -1.12884118e+00
 -4.21721011e+00 1.22130345e+01 -1.13040998e+00
 -4.21721011e+00 1.22130345e+01 -1.13040998e+00
 -4.05555833e+00 1.22844479e+01 -1.13180448e+00
 -4.05430912e+00 1.22806640e+01 -1.13145585e+00
 -3.86475326e+00 1.22873360e+01 -1.12692375e+00
 -3.85399292e+00 1.22531253e+01 -1.12378615e+00
 -3.68468461e+00 1.23050981e+01 -1.12378615e+00
 -3.67211084e+00 1.22631077e+01 -1.11995129e+00
 -3.50382903e+00 1.23329592e+01 -1.12169441e+00
 -3.50056205e+00 1.23214600e+01 -1.12064854e+00
 -3.32093882e+00 1.23421990e+01 -1.11820818e+00
 -3.33388090e+00 1.23902980e+01 -1.12256597e+00
 -3.15634634e+00 1.24099848e+01 -1.12029992e+00
 -3.15536413e+00 1.24061229e+01 -1.11995129e+00
 -2.98215499e+00 1.24406988e+01 -1.11925405e+00
 -2.98029724e+00 1.24329488e+01 -1.11855680e+00
 -2.80991438e+00 1.24888987e+01 -1.11995129e+00
 -2.81516247e+00 1.25122243e+01 -1.12204303e+00
 -2.64183076e+00 1.25581093e+01 -1.12274028e+00
 -2.62788537e+00 1.24918190e+01 -1.11681369e+00
 -9.93973399e+00 2.63882822e+01 5.48117920e+00
 -9.97433587e+00 2.64801442e+01 5.50026010e+00
 -9.63496001e+00 2.67036225e+01 5.51819615e+00
 -9.67693805e+00 2.68199661e+01 5.54223808e+00
 -9.33314683e+00 2.70287800e+01 5.55826604e+00
 -9.36390488e+00 2.71178553e+01 5.57658370e+00
 -9.01480384e+00 2.73062004e+01 5.58955871e+00
 -9.01541931e+00 2.73080647e+01 5.58994033e+00
 -8.66204872e+00 2.75395337e+01 5.61169255e+00
 -8.69032334e+00 2.76294282e+01 5.63001022e+00
 -8.33558451e+00 2.78368969e+01 5.64832788e+00
 -8.36599608e+00 2.79384571e+01 5.66893525e+00
 -8.38440633e+00 2.95118685e+01 5.96354434e+00
 -8.41015993e+00 2.96025174e+01 5.98186201e+00
 -8.02714136e+00 2.98327014e+01 6.00514070e+00
 -8.04907623e+00 2.99142218e+01 6.02155028e+00
 -7.66586728e+00 3.01403224e+01 6.04521059e+00
 -7.69683853e+00 3.02620937e+01 6.06963414e+00
 -7.30540680e+00 3.04760705e+01 6.09176799e+00
 -7.33149264e+00 3.05848931e+01 6.11352021e+00
 -6.84427573e+00 3.04199540e+01 6.06085693e+00
 -6.72792045e+00 2.99028033e+01 5.95782007e+00
 -6.19780381e+00 2.94616516e+01 5.85211189e+00
 -6.09029707e+00 2.89506115e+01 5.75060150e+00
 -7.19230864e+00 1.90943410e+01 -1.06932826e+00
 -7.22046959e+00 1.91691035e+01 -1.07351513e+00
 -6.95483473e+00 1.92755633e+01 -1.07393382e+00
 -6.97788194e+00 1.93394394e+01 -1.07749267e+00
 -6.71448431e+00 1.94451371e+01 -1.07812070e+00
 -6.72882593e+00 1.94866704e+01 -1.08042348e+00
 -6.47169333e+00 1.96030173e+01 -1.08188889e+00
 -6.48296370e+00 1.96371556e+01 -1.08377298e+00
 -6.21070394e+00 1.97458934e+01 -1.08481970e+00
 -6.20950543e+00 1.97420829e+01 -1.08461036e+00
 -5.93671798e+00 1.98258209e+01 -1.08461036e+00
 -5.94302022e+00 1.98468675e+01 -1.08576175e+00
 -5.66949879e+00 1.99557961e+01 -1.08722715e+00
 -5.68259862e+00 2.00019055e+01 -1.08973928e+00
 -5.39031972e+00 2.00330094e+01 -1.08722715e+00
 -5.40277449e+00 2.00792973e+01 -1.08973928e+00
 -5.11359894e+00 2.01054251e+01 -1.08722715e+00
 -5.13821432e+00 2.02022068e+01 -1.09246075e+00
 -4.88246332e+00 2.03682423e+01 -1.09769435e+00
 -4.85918467e+00 2.02711305e+01 -1.09246075e+00
 0.00000000e+00 0.00000000e+00 0.00000000e+00
 0.00000000e+00 0.00000000e+00 0.00000000e+00
 0.00000000e+00 0.00000000e+00 0.00000000e+00
 0.00000000e+00 0.00000000e+00 0.00000000e+00
 -9.90265688e+00 2.62898489e+01 6.48578880e+00
 -9.92875989e+00 2.63591479e+01 6.50288508e+00
 -9.59283050e+00 2.65868592e+01 6.52538018e+00
 -9.62060897e+00 2.66638481e+01 6.54427607e+00
 -9.28895352e+00 2.69007963e+01 6.57037040e+00
 -9.32202840e+00 2.69965811e+01 6.59376530e+00
 -8.98298035e+00 2.72098058e+01 6.61536061e+00
 -9.01108271e+00 2.72949290e+01 6.63605610e+00
 -8.65531122e+00 2.75181130e+01 6.65990091e+00
 -8.69214731e+00 2.76352272e+01 6.68824475e+00
 -8.34439568e+00 2.78663220e+01 6.71568878e+00
 -8.36955129e+00 2.79503298e+01 6.73593437e+00
 -9.26666173e+00 3.26172769e+01 7.82829669e+00
 -9.28263873e+00 3.26735136e+01 7.84179375e+00
 -8.83718628e+00 3.28432162e+01 7.85214150e+00
 -8.86098435e+00 3.29316612e+01 7.87328690e+00
 -8.32827500e+00 3.27447481e+01 7.80040276e+00
 -8.16015317e+00 3.20837340e+01 7.64293702e+00
 -7.57074511e+00 3.15829861e+01 7.49806854e+00
 -7.41266163e+00 3.09235070e+01 7.34150261e+00
 -6.83388575e+00 3.03737748e+01 7.18763609e+00
 -6.70812445e+00 2.98148183e+01 7.05536487e+00
 -6.17966468e+00 2.93754261e+01 6.93029208e+00
 -6.07455743e+00 2.88757922e+01 6.81241773e+00
 -7.53519646e+00 2.00046491e+01 -3.73132450e-01
 -9.54834156e+00 2.53492027e+01 -4.72820595e-01
 -9.35840139e+00 2.59371308e+01 -4.81302465e-01
 -1.01504280e+01 2.81322597e+01 -5.22036381e-01
 -9.79160857e+00 2.83564846e+01 -5.23642003e-01
 -9.83272784e+00 2.84755659e+01 -5.25841006e-01
 -9.47426559e+00 2.86979284e+01 -5.27516437e-01
 -9.50498345e+00 2.87909740e+01 -5.29226773e-01
 -9.12822378e+00 2.90216593e+01 -5.31041823e-01
 -9.14742341e+00 2.90827013e+01 -5.32158777e-01
 -8.77425292e+00 2.93018412e+01 -5.33904018e-01
 -8.80809712e+00 2.94148648e+01 -5.35963402e-01
 -8.41270114e+00 2.96114621e+01 -5.37324689e-01
 -8.44439769e+00 2.97230292e+01 -5.39349169e-01
 -8.05455535e+00 2.99345849e+01 -5.41094409e-01
 -8.08053443e+00 3.00311356e+01 -5.42839650e-01
 -7.70021070e+00 3.02753523e+01 -5.45282987e-01
 -7.72682774e+00 3.03800040e+01 -5.47167847e-01
 -7.33239558e+00 3.05886599e+01 -5.49052707e-01
 -7.35663491e+00 3.06897795e+01 -5.50867757e-01
 -6.88616079e+00 3.06061156e+01 -5.47586704e-01
 -6.78081412e+00 3.01378936e+01 -5.39209549e-01
 -6.24862524e+00 2.97032345e+01 -5.29820155e-01
 -4.78228338e+00 2.27328859e+01 -4.05489211e-01
 -9.88970052e+00 2.62554520e+01 7.51765798e+00
 -9.92034409e+00 2.63368054e+01 7.54095170e+00
 -9.58968616e+00 2.65781445e+01 7.57097471e+00
 -9.61787955e+00 2.66562835e+01 7.59323315e+00
 -9.27718134e+00 2.68667040e+01 7.61600922e+00
 -9.30807795e+00 2.69561806e+01 7.64137349e+00
 -8.97114392e+00 2.71739528e+01 7.66777303e+00
 -9.00929838e+00 2.72895242e+01 7.70038423e+00
 -8.65101639e+00 2.75044583e+01 7.72574850e+00
 -8.67652022e+00 2.75855435e+01 7.74852457e+00
 -8.33691794e+00 2.78413499e+01 7.78734743e+00
 -8.76584472e+00 2.92737618e+01 8.18799931e+00
 -8.37594821e+00 2.94820972e+01 8.21232830e+00
 -8.39706626e+00 2.95564296e+01 8.23303382e+00
 -8.01218692e+00 2.97771235e+01 8.26253920e+00
 -8.04531587e+00 2.99002465e+01 8.29670331e+00
 -7.65705820e+00 3.01056872e+01 8.32362049e+00
 -7.69039116e+00 3.02367443e+01 8.35985516e+00
 -7.29077913e+00 3.04150480e+01 8.38056068e+00
 -7.32230195e+00 3.05465522e+01 8.41679535e+00
 -6.81918636e+00 3.03084422e+01 8.32413813e+00
 -6.69281875e+00 2.97467908e+01 8.16988198e+00
 -6.16349293e+00 2.92985527e+01 8.02235512e+00
 -6.06088736e+00 2.88108106e+01 7.88880449e+00
 -2.57865277e+00 4.42701382e+00 -1.37277622e+00
 -2.56892934e+00 4.41032070e+00 -1.36759983e+00
 -2.50710124e+00 4.44575866e+00 -1.36759983e+00
 -2.51469277e+00 4.45922046e+00 -1.37174094e+00
 -2.44926890e+00 4.48668573e+00 -1.36967039e+00
 -2.45482280e+00 4.49685962e+00 -1.37277622e+00
 -2.38999378e+00 4.52727915e+00 -1.37174094e+00
 -2.39179755e+00 4.53069597e+00 -1.37277622e+00
 -2.32830601e+00 4.56364904e+00 -1.37277622e+00
 -2.33357367e+00 4.57397404e+00 -1.37588204e+00
 -2.26948356e+00 4.60610996e+00 -1.37588204e+00
 -2.27289888e+00 4.61304166e+00 -1.37795260e+00
 -2.20661010e+00 4.64083727e+00 -1.37691732e+00
 -2.20661010e+00 4.64083727e+00 -1.37691732e+00
 -2.13839488e+00 4.65991130e+00 -1.37381149e+00
 -2.14645213e+00 4.67746937e+00 -1.37898787e+00
 -2.08085309e+00 4.71124299e+00 -1.38002315e+00
 -2.07773103e+00 4.70417436e+00 -1.37795260e+00
 -2.01418610e+00 4.73592977e+00 -1.37898787e+00
 -2.01569826e+00 4.73948527e+00 -1.38002315e+00
 -1.95079059e+00 4.77074310e+00 -1.38105842e+00
 -1.95225295e+00 4.77431937e+00 -1.38209370e+00
 -1.88341484e+00 4.79359037e+00 -1.38002315e+00
 -1.88624067e+00 4.80078256e+00 -1.38209370e+00
 -1.40083263e+01 2.40494009e+01 4.85805186e-01
 -1.40334886e+01 2.40925993e+01 4.86677806e-01
 -1.37291325e+01 2.43454108e+01 4.87864570e-01
 -1.37468133e+01 2.43767635e+01 4.88492856e-01
 -1.34343200e+01 2.46096180e+01 4.89400381e-01
 -1.34649811e+01 2.46657843e+01 4.90517335e-01
 -1.31510214e+01 2.49115062e+01 4.91704099e-01
 -1.31846294e+01 2.49751687e+01 4.92960672e-01
 -1.28082819e+01 2.51051637e+01 4.91948433e-01
 -9.96472339e+00 1.95315822e+01 3.82731273e-01
 0.00000000e+00 0.00000000e+00 0.00000000e+00
 0.00000000e+00 0.00000000e+00 0.00000000e+00
 -1.14582969e+01 2.40985443e+01 4.65769823e-01
 -1.14720358e+01 2.41274394e+01 4.66328300e-01
 -1.10958172e+01 2.41795960e+01 4.64373630e-01
 -9.18173872e+00 2.00085066e+01 3.84267085e-01
 -8.90818718e+00 2.01689560e+01 3.84860467e-01
 -1.08100439e+01 2.44749349e+01 4.67026396e-01
 -1.05701754e+01 2.48535168e+01 4.71424403e-01
 0.00000000e+00 0.00000000e+00 0.00000000e+00
 -1.02410572e+01 2.50449501e+01 4.72297023e-01
 -1.01918614e+01 2.49246396e+01 4.70028210e-01
 -9.94961740e+00 2.53233590e+01 4.74914884e-01
 -9.98837455e+00 2.54220021e+01 4.76764839e-01
 -2.89839109e+00 4.97593843e+00 -1.32946073e+00
 -2.89937194e+00 4.97762233e+00 -1.32991063e+00
 -2.83437704e+00 5.02610586e+00 -1.33216014e+00
 -2.82863362e+00 5.01592125e+00 -1.32946073e+00
 -2.75920691e+00 5.05444472e+00 -1.32946073e+00
 -2.75920691e+00 5.05444472e+00 -1.32946073e+00
 -2.69109619e+00 5.09764660e+00 -1.33081044e+00
 -2.69200596e+00 5.09936994e+00 -1.33126034e+00
 -2.61700275e+00 5.12951564e+00 -1.32946073e+00
 -2.61877399e+00 5.13298740e+00 -1.33036054e+00
 -2.54685103e+00 5.16905085e+00 -1.33036054e+00
 -2.54512844e+00 5.16555470e+00 -1.32946073e+00
 -2.47694197e+00 5.20938637e+00 -1.33171024e+00
 -2.47694197e+00 5.20938637e+00 -1.33171024e+00
 -2.40173245e+00 5.23376684e+00 -1.32946073e+00
 -2.40091968e+00 5.23199569e+00 -1.32901083e+00
 -2.33052164e+00 5.27651559e+00 -1.33171024e+00
 -2.33052164e+00 5.27651559e+00 -1.33171024e+00
 -2.25602392e+00 5.30455989e+00 -1.33081044e+00
 -2.25602392e+00 5.30455989e+00 -1.33081044e+00
 -2.17952807e+00 5.33013054e+00 -1.32946073e+00
 -2.18469108e+00 5.34275691e+00 -1.33261005e+00
 -2.11366981e+00 5.37962590e+00 -1.33440965e+00
 -2.11438244e+00 5.38143966e+00 -1.33485956e+00
 -1.39972909e+01 2.40304554e+01 1.45745171e+00
 -1.40173962e+01 2.40649720e+01 1.45954515e+00
 -1.37104435e+01 2.43122702e+01 1.46278998e+00
 -1.37477241e+01 2.43783787e+01 1.46676751e+00
 -1.34380492e+01 2.46164492e+01 1.46980300e+00
 -1.34600599e+01 2.46567695e+01 1.47221045e+00
 -1.31349989e+01 2.48811553e+01 1.47451323e+00
 -1.31480527e+01 2.49058828e+01 1.47597864e+00
 -1.25476066e+01 2.45942210e+01 1.44698452e+00
 -9.95076757e+00 1.95042278e+01 1.14751818e+00
 -9.72602675e+00 1.97397988e+01 1.15327513e+00
 -1.15532981e+01 2.34484014e+01 1.36994599e+00
 -1.12590867e+01 2.36795748e+01 1.37413287e+00
 -1.12882464e+01 2.37409022e+01 1.37769171e+00
 -1.09906681e+01 2.39504589e+01 1.38104121e+00
 -9.18554627e+00 2.00168039e+01 1.15421718e+00
 -8.90943804e+00 2.01717881e+01 1.15568259e+00
 -1.07258627e+01 2.42843409e+01 1.39129906e+00
