ply
format ascii 1.0
element vertex 1288
property float x
property float y
property float z
property uchar red
property uchar green
property uchar blue
end_header
-2.84459 -8.28948 -1.70354 255 0 0
-2.86243 -8.34147 -1.71423 255 0 0
-3.00541 -8.36617 -1.72797 255 0 0
-2.98152 -8.29965 -1.71423 255 0 0
-3.09429 -8.25408 -1.71346 255 0 0
-3.10256 -8.27614 -1.71804 255 0 0
-3.20923 -8.21429 -1.71423 255 0 0
-3.20923 -8.21429 -1.71423 255 0 0
-3.32218 -8.16926 -1.71423 255 0 0
-3.30443 -8.12561 -1.70507 255 0 0
-3.4145 -8.07145 -1.70354 255 0 0
-3.4145 -8.07145 -1.70354 255 0 0
-3.52546 -8.02361 -1.70354 255 0 0
-3.49703 -7.9589 -1.6898 255 0 0
-3.60781 -7.9093 -1.6898 255 0 0
-3.60781 -7.9093 -1.6898 255 0 0
-3.73132 -7.88655 -1.69591 255 0 0
-3.73132 -7.88655 -1.69591 255 0 0
-3.83625 -7.8273 -1.69438 255 0 0
-3.83625 -7.8273 -1.69438 255 0 0
-3.96335 -7.81218 -1.70278 255 0 0
-3.95624 -7.79818 -1.69973 255 0 0
-4.06061 -7.73104 -1.69744 255 0 0
-4.06426 -7.73799 -1.69896 255 0 0
-15.7934 -46.0237 4.25704 255 192 203
-16.7233 -48.7337 4.5077 255 192 203
-16.4895 -45.9018 4.26715 255 192 203
-16.3884 -45.6205 4.241 255 192 203
-19.0525 -50.8228 4.74859 255 255 255
-16.7025 -44.5544 4.16291 255 192 203
-16.2777 -41.6643 3.91347 255 255 255
-16.606 -40.8342 3.85664 255 255 255
-17.8016 -43.7743 4.13432 255 192 203
-17.5292 -41.4369 3.9363 255 255 255
-19.2152 -45.4224 4.31491 255 192 203
-18.4082 -41.8954 4.00359 255 255 255
-18.482 -42.0632 4.01962 255 255 255
-19.1055 -41.8844 4.02764 255 255 255
-19.0228 -41.7032 4.01021 255 255 255
-19.253 -40.6933 3.93857 255 255 255
-19.0545 -40.2737 3.89795 255 255 255
-19.7044 -40.2039 3.91713 255 255 255
-19.8324 -40.4651 3.94258 255 255 255
-20.237 -39.8893 3.91329 255 255 255
-32.244 -63.5564 6.23512 255 255 255
-3.51358 -10.239 -1.71452 255 0 0
-3.51614 -10.2465 -1.71577 255 0 0
-3.67311 -10.2248 -1.72078 255 0 0
-3.67311 -10.2248 -1.72078 255 0 0
-3.79432 -10.1214 -1.71202 255 0 0
-3.81373 -10.1732 -1.72078 255 0 0
-3.95363 -10.1197 -1.72078 255 0 0
-3.91769 -10.0277 -1.70514 255 0 0
-4.04516 -9.94708 -1.70076 255 0 0
-4.18365 -9.88964 -1.70076 255 0 0
-4.18365 -9.88964 -1.70076 255 0 0
-4.30689 -9.80208 -1.69575 255 0 0
-4.30689 -9.80208 -1.69575 255 0 0
-4.42693 -9.70504 -1.68949 255 0 0
-4.45809 -9.77334 -1.70138 255 0 0
-4.5789 -9.678 -1.69575 255 0 0
-4.56201 -9.64229 -1.68949 255 0 0
-4.69452 -9.57847 -1.68949 255 0 0
-4.69452 -9.57847 -1.68949 255 0 0
-4.82614 -9.51283 -1.68949 255 0 0
-4.82614 -9.51283 -1.68949 255 0 0
-4.96013 -9.44366 -1.68949 255 0 0
-4.98402 -9.48913 -1.69763 255 0 0
-16.4417 -47.913 6.21972 255 255 255
-15.9816 -46.5724 6.04569 255 255 255
-16.0049 -44.5529 5.81268 255 255 255
-15.6993 -41.8782 5.49143 255 255 255
-16.9369 -43.3514 5.7147 255 255 255
-17.0987 -43.7656 5.76929 255 255 255
-17.7768 -43.7132 5.79416 255 255 255
-17.4155 -41.1682 5.48851 255 255 255
-18.1131 -42.8172 5.70836 255 255 255
-19.7111 -43.212 5.83169 255 255 255
-19.3321 -42.3812 5.71957 255 255 255
-21.3376 -43.5362 5.95307 255 255 255
-21.0628 -41.5171 5.71616 255 255 255
-4.51666 -13.1621 -1.70861 255 0 0
-4.51666 -13.1621 -1.70861 255 0 0
-4.72201 -13.1447 -1.71495 255 0 0
-4.74752 -13.2157 -1.72421 255 0 0
-4.95436 -13.2159 -1.73298 255 0 0
-5.08554 -13.0169 -1.71592 255 0 0
-5.06387 -12.9614 -1.70861 255 0 0
-5.2421 -12.8904 -1.70861 255 0 0
-5.2421 -12.8904 -1.70861 255 0 0
-5.42156 -12.8159 -1.70861 255 0 0
-5.42156 -12.8159 -1.70861 255 0 0
-5.59775 -12.7399 -1.70861 255 0 0
-5.59775 -12.7399 -1.70861 255 0 0
-5.89695 -12.4638 -1.69301 255 0 0
-6.0595 -12.3635 -1.69057 255 0 0
-6.03679 -12.3172 -1.68423 255 0 0
-6.20604 -12.2328 -1.68423 255 0 0
-6.40235 -12.1895 -1.69057 255 0 0
-6.37835 -12.1438 -1.68423 255 0 0
-17.8243 -51.9423 8.69776 255 255 255
-16.7267 -46.562 7.83612 255 255 255
-17.1881 -45.8498 7.75539 255 255 255
-16.6972 -44.5402 7.53388 255 255 255
-17.2493 -44.1512 7.5076 255 255 255
-17.166 -43.9378 7.47131 255 255 255
-18.3699 -45.1718 7.72348 255 255 255
-17.0171 -41.8451 7.15469 255 255 255
-17.4842 -41.3305 7.10776 255 255 255
-17.772 -42.0109 7.22477 255 255 255
-19.0854 -43.4366 7.51449 255 255 255
-20.0639 -43.9854 7.65715 255 255 255
-19.9056 -42.0725 7.37182 255 255 255
-19.6749 -41.585 7.2864 255 255 255
-20.4455 -41.716 7.35805 255 255 255
-20.3551 -41.5315 7.32551 255 255 255
-7.2113 -17.7327 -1.67478 255 0 0
-7.45818 -17.6302 -1.67478 255 0 0
-7.48613 -17.6963 -1.68106 255 0 0
-7.74063 -17.6169 -1.6835 255 0 0
-7.72139 -17.5732 -1.67932 255 0 0
-7.9445 -17.4165 -1.67478 255 0 0
-7.97592 -17.4854 -1.68141 255 0 0
-8.23632 -17.4083 -1.68489 255 0 0
-8.24143 -17.4191 -1.68594 255 0 0
-8.46854 -17.2788 -1.6835 255 0 0
-8.51239 -17.3683 -1.69222 255 0 0
-8.99402 -17.1238 -1.69222 255 0 0
-8.99402 -17.1238 -1.69222 255 0 0
-15.2476 -44.4334 9.13136 255 255 255
-14.6588 -42.7175 8.77874 255 255 255
-15.5395 -43.2572 8.93444 255 255 255
-15.6921 -43.6822 9.02221 255 255 255
-16.6719 -44.4728 9.2321 255 255 255
-15.9618 -40.8557 8.52611 255 255 255
-16.2355 -41.556 8.67227 255 255 255
-16.7033 -41.0736 8.61884 255 255 255
-18.2513 -44.88 9.41757 255 255 255
-18.4669 -43.6535 9.2134 255 255 255
-19.1831 -43.6589 9.2695 255 255 255
-19.0425 -43.339 9.20157 255 255 255
-20.2153 -44.3174 9.46832 255 255 255
-20.133 -44.137 9.42978 255 255 255
-6.44459 -16.4955 -0.928126 255 255 255
-6.50782 -16.6573 -0.937232 255 255 255
-6.79405 -16.7066 -0.945187 255 255 255
-13.452 -29.4904 -1.69872 255 0 0
-14.0332 -29.6607 -1.71965 255 0 0
-14.8457 -29.2625 -1.71965 255 0 0
-14.6831 -28.9419 -1.70081 255 0 0
-14.8883 -28.346 -1.678 255 0 0
-14.7025 -27.9923 -1.65706 255 0 0
-15.1577 -44.1712 10.7815 255 255 255
-16.0465 -44.6687 10.9578 255 255 255
-15.9905 -42.655 10.5169 255 255 255
-17.221 -44.0786 10.9254 255 255 255
-13.0555 -33.4167 -0.626227 255 255 255
-13.5218 -33.2502 -0.626541 255 255 255
-13.5452 -33.3077 -0.627623 255 255 255
-14.0595 -33.235 -0.629892 255 255 255
-14.1094 -33.3529 -0.632126 255 255 255
-17.874 -40.6796 -0.775585 255 255 255
-17.8612 -40.6503 -0.775026 255 255 255
-20.2893 -44.4796 -0.853353 255 255 255
-21.1495 -44.7017 -0.863196 255 255 255
-21.3821 -45.1934 -0.87269 255 255 255
-17.6416 -35.9952 -0.699702 255 255 255
-17.4366 -35.5768 -0.691569 255 255 255
-17.7906 -35.0673 -0.686368 255 255 255
-17.5735 -34.6393 -0.677991 255 255 255
-17.869 -34.0209 -0.670766 255 255 255
-17.7165 -33.7306 -0.665041 255 255 255
-15.3398 -44.7021 12.6635 255 255 255
-15.2859 -44.5449 12.619 255 255 255
-16.5436 -46.0524 13.1118 255 255 255
-17.5391 -46.7859 13.3882 255 255 255
-16.663 -44.4488 12.7194 255 255 255
-16.8974 -43.2504 12.4419 255 255 255
-17.0239 -43.5742 12.5351 255 255 255
-17.5038 -43.0419 12.4502 255 255 255
-18.2264 -43.0851 12.5351 255 255 255
-17.9946 -42.5371 12.3757 255 255 255
-19.5524 -44.4993 13.0238 255 255 255
-0.167579 -1.01007 -0.274348 0 255 0
-0.166947 -1.00626 -0.273313 0 255 0
-0.183722 -1.01904 -0.277454 0 255 0
-0.179609 -0.996229 -0.271242 0 255 0
-0.192221 -0.987969 -0.269689 0 255 0
-0.195541 -1.00504 -0.274348 0 255 0
-0.207404 -0.992789 -0.27176 0 255 0
-0.21175 -1.01359 -0.277454 0 255 0
-0.225214 -1.00672 -0.276419 0 255 0
-0.220997 -0.987872 -0.271242 0 255 0
-0.232358 -0.975335 -0.268654 0 255 0
-0.233701 -0.980973 -0.270207 0 255 0
-0.245953 -0.971996 -0.268654 0 255 0
-0.247374 -0.977614 -0.270207 0 255 0
-0.259661 -0.970424 -0.269172 0 255 0
-0.267152 -0.998417 -0.276936 0 255 0
-0.278439 -0.985294 -0.274348 0 255 0
-0.279489 -0.989012 -0.275383 0 255 0
-0.289243 -0.972104 -0.27176 0 255 0
-0.289793 -0.973955 -0.272278 0 255 0
-0.303364 -0.969814 -0.272278 0 255 0
-0.30221 -0.966127 -0.271242 0 255 0
-0.31808 -0.969155 -0.273313 0 255 0
-0.321694 -0.980168 -0.276419 0 255 0
-18.3901 -77.1936 1.38513 255 255 255
-19.4906 -77.0262 1.38687 255 255 255
-0.0947284 -0.570971 -0.133621 0 255 0
-0.0966421 -0.582506 -0.13632 0 255 0
-0.104074 -0.577264 -0.135421 0 255 0
-0.104074 -0.577264 -0.135421 0 255 0
-0.113512 -0.583426 -0.13722 0 255 0
-0.106069 -0.545168 -0.128222 0 255 0
-0.119154 -0.57036 -0.134521 0 255 0
-0.118357 -0.566545 -0.133621 0 255 0
-0.124653 -0.557208 -0.131821 0 255 0
-0.126355 -0.564815 -0.133621 0 255 0
-0.135937 -0.570602 -0.135421 0 255 0
-0.135937 -0.570602 -0.135421 0 255 0
-0.144846 -0.572427 -0.13632 0 255 0
-0.148671 -0.58754 -0.13992 0 255 0
-0.15464 -0.577932 -0.13812 0 255 0
-0.149603 -0.559107 -0.133621 0 255 0
-0.163754 -0.579467 -0.13902 0 255 0
-0.162694 -0.575716 -0.13812 0 255 0
-0.165059 -0.55474 -0.133621 0 255 0
-0.169505 -0.569683 -0.13722 0 255 0
-0.184424 -0.589579 -0.142619 0 255 0
-0.184424 -0.589579 -0.142619 0 255 0
-0.192638 -0.586947 -0.142619 0 255 0
-0.192638 -0.586947 -0.142619 0 255 0
-13.3862 -52.9018 2.85985 255 255 255
-14.6171 -51.7245 2.81693 255 255 255
-14.5041 -51.3248 2.79516 255 255 255
-14.8982 -50.0709 2.7378 255 255 255
-14.5007 -48.7347 2.66474 255 255 255
-15.6412 -50.0028 2.74575 255 255 255
-16.0376 -48.8649 2.6953 255 255 255
-15.8832 -48.3943 2.66934 255 255 255
-1.43312 -8.63804 -1.70202 255 0 0
-1.43312 -8.63804 -1.70202 255 0 0
-1.55219 -8.60946 -1.70049 255 0 0
-1.55219 -8.60946 -1.70049 255 0 0
-1.66475 -8.55641 -1.69438 255 0 0
-1.66775 -8.57182 -1.69744 255 0 0
-1.78577 -8.54801 -1.69744 255 0 0
-1.78818 -8.55954 -1.69973 255 0 0
-1.90644 -8.52191 -1.69744 255 0 0
-1.90644 -8.52191 -1.69744 255 0 0
-2.03012 -8.52156 -1.70278 255 0 0
-2.02557 -8.50246 -1.69896 255 0 0
-2.14794 -8.48857 -1.70202 255 0 0
-2.15276 -8.50761 -1.70583 255 0 0
-2.25518 -8.4282 -1.69591 255 0 0
-2.27243 -8.49269 -1.70889 255 0 0
-2.38118 -8.42612 -1.70202 255 0 0
-2.39079 -8.46013 -1.70889 255 0 0
-2.5072 -8.42636 -1.70889 255 0 0
-2.51392 -8.44894 -1.71346 255 0 0
-2.61992 -8.37554 -1.70583 255 0 0
-2.63047 -8.40927 -1.7127 255 0 0
-2.7562 -8.39784 -1.71804 255 0 0
-2.7415 -8.35307 -1.70889 255 0 0
-13.8976 -66.5242 5.94576 255 255 255
-12.7563 -50.4125 4.54953 255 255 255
-13.8318 -51.6931 4.68166 255 255 255
-13.5702 -50.7153 4.59311 255 255 255
-13.9648 -49.4165 4.4927 255 192 203
-14.3463 -50.7663 4.61542 255 255 255
-15.1449 -50.8998 4.6461 255 255 255
-14.9471 -50.2352 4.58544 255 255 255
-15.2271 -48.6792 4.46237 255 192 203
-14.8179 -47.3709 4.34245 255 192 203
-15.4101 -46.9531 4.32345 255 192 203
-15.8805 -48.3861 4.4554 255 192 203
-1.75234 -10.5622 -1.69575 255 0 0
-1.7504 -10.5505 -1.69387 255 0 0
-1.90245 -10.5522 -1.69825 255 0 0
-1.89964 -10.5367 -1.69575 255 0 0
-2.03719 -10.4707 -1.68949 255 0 0
-2.04172 -10.494 -1.69325 255 0 0
-2.18137 -10.4416 -1.68949 255 0 0
-2.18137 -10.4416 -1.68949 255 0 0
-2.33307 -10.429 -1.69262 255 0 0
-2.34342 -10.4753 -1.70013 255 0 0
-2.48305 -10.4228 -1.697 255 0 0
-2.48305 -10.4228 -1.697 255 0 0
-2.63318 -10.4062 -1.70013 255 0 0
-2.62639 -10.3794 -1.69575 255 0 0
-2.76949 -10.3503 -1.697 255 0 0
-2.76949 -10.3503 -1.697 255 0 0
-2.9277 -10.3601 -1.70514 255 0 0
-2.9277 -10.3601 -1.70514 255 0 0
-3.07026 -10.3187 -1.70514 255 0 0
-3.06576 -10.3036 -1.70263 255 0 0
-3.21875 -10.2899 -1.70764 255 0 0
-3.21993 -10.2937 -1.70826 255 0 0
-3.36211 -10.244 -1.70764 255 0 0
-3.37196 -10.274 -1.71264 255 0 0
-12.3794 -48.9231 6.19632 255 255 255
-12.3025 -48.619 6.15781 255 255 255
-14.3175 -50.6644 6.46444 255 255 255
-13.9213 -49.2623 6.28553 255 255 255
-14.4293 -48.4949 6.21241 255 255 255
-15.6372 -49.99 6.43129 255 255 255
-14.8585 -47.5005 6.11102 255 255 255
-15.623 -47.6016 6.15148 255 255 255
-15.6614 -47.7185 6.16659 255 255 255
-2.24506 -13.532 -1.68423 255 0 0
-2.24506 -13.532 -1.68423 255 0 0
-2.43378 -13.4994 -1.68423 255 0 0
-2.43378 -13.4994 -1.68423 255 0 0
-2.61967 -13.4645 -1.68423 255 0 0
-2.61967 -13.4645 -1.68423 255 0 0
-2.80507 -13.4271 -1.68423 255 0 0
-2.80507 -13.4271 -1.68423 255 0 0
-2.9946 -13.3861 -1.68423 255 0 0
-2.9946 -13.3861 -1.68423 255 0 0
-3.17888 -13.3436 -1.68423 255 0 0
-3.20189 -13.4401 -1.69642 255 0 0
-3.36488 -13.2979 -1.68423 255 0 0
-3.38241 -13.3671 -1.69301 255 0 0
-3.54559 -13.2508 -1.68423 255 0 0
-3.56406 -13.3199 -1.69301 255 0 0
-3.92492 -13.1911 -1.68984 255 0 0
-3.92888 -13.2044 -1.69155 255 0 0
-4.15435 -13.2809 -1.70861 255 0 0
-4.33937 -13.2216 -1.70861 255 0 0
-4.33937 -13.2216 -1.70861 255 0 0
-13.1318 -62.8585 10.1707 255 255 255
-11.5757 -48.5895 7.9112 255 255 255
-12.3886 -48.9594 7.99881 255 255 255
-12.5524 -49.6067 8.10456 255 255 255
-13.2613 -49.561 8.12583 255 255 255
-12.9192 -48.2824 7.91621 255 255 255
-13.7414 -48.6258 8.00319 255 255 255
-13.6001 -48.1259 7.9209 255 255 255
-15.5276 -49.6398 8.23784 255 255 255
-16.5443 -52.89 8.77722 255 255 255
-17.4105 -53.048 8.84293 255 255 255
-4.43632 -18.6217 -1.67478 255 0 0
-5.90734 -17.999 -1.65735 255 0 0
-11.0896 -66.8422 13.1704 255 255 255
-11.7675 -65.2704 12.8918 255 255 255
-12.8913 -66.2582 13.1208 255 255 255
-12.865 -66.1233 13.0941 255 255 255
-13.5724 -64.9672 12.901 255 255 255
-14.5649 -65.106 12.9681 255 255 255
-14.5331 -64.9643 12.9399 255 255 255
-16.7372 -62.5515 12.5865 255 255 255
-13.2976 -49.6968 9.99992 255 255 255
-13.8888 -49.1473 9.92741 255 255 255
-14.312 -48.1006 9.75492 255 255 255
-15.7968 -53.091 10.767 255 255 255
-15.4581 -49.4176 10.0648 255 255 255
-14.518 -46.4121 9.45268 255 255 255
-15.1891 -46.2795 9.46794 255 255 255
-15.3605 -46.8018 9.5748 255 255 255
-5.59072 -28.735 -1.53418 255 0 0
-5.32881 -17.0355 -0.935453 255 255 255
-5.28886 -16.9078 -0.92844 255 255 255
-5.49577 -16.745 -0.923625 255 255 255
-13.0751 -67.203 15.806 255 255 255
-12.5116 -64.3069 15.1248 255 255 255
-13.4537 -64.3992 15.1887 255 255 255
-14.6818 -65.6288 15.5261 255 255 255
-14.4385 -53.9604 12.896 255 255 255
-6.79818 -24.0563 5.77134 255 255 255
-6.81832 -24.1276 5.78844 255 255 255
-14.723 -49.4821 11.9188 255 255 255
-15.3974 -49.2234 11.9071 255 255 255
-16.4319 -50.0664 12.1654 255 255 255
-14.2321 -43.3637 10.5367 255 255 255
-12.8383 -53.8896 14.8438 255 255 255
-12.7792 -53.6416 14.7755 255 255 255
-13.4644 -53.2107 14.7071 255 255 255
-13.772 -51.4698 14.2765 255 255 255
-13.9049 -51.9662 14.4142 255 255 255
-14.9443 -52.8824 14.7247 255 255 255
-14.9884 -53.0386 14.7682 255 255 255
-13.6798 -45.9759 12.853 255 255 255
-14.5419 -46.4884 13.0517 255 255 255
-14.7377 -44.9042 12.6635 255 255 255
-14.7341 -44.8932 12.6604 255 255 255
0.00247349 -1.01229 -0.271242 0 255 0
0.00255846 -1.04706 -0.28056 0 255 0
-0.011703 -1.03154 -0.276419 0 255 0
-0.0115715 -1.01995 -0.273313 0 255 0
-0.0262022 -1.03514 -0.277454 0 255 0
-0.0262022 -1.03514 -0.277454 0 255 0
-0.0403209 -1.03082 -0.276419 0 255 0
-0.0401698 -1.02696 -0.275383 0 255 0
-0.0544781 -1.02243 -0.274348 0 255 0
-0.0546836 -1.02629 -0.275383 0 255 0
-0.0690076 -1.02543 -0.275383 0 255 0
-0.0695264 -1.03314 -0.277454 0 255 0
-0.0828267 -1.02053 -0.274348 0 255 0
-0.0815765 -1.00512 -0.270207 0 255 0
-0.0968895 -1.01929 -0.274348 0 255 0
-0.0972551 -1.02313 -0.275383 0 255 0
-0.111531 -1.02168 -0.275383 0 255 0
-0.111111 -1.01783 -0.274348 0 255 0
-0.124898 -1.01429 -0.273831 0 255 0
-0.124426 -1.01045 -0.272795 0 255 0
-0.138698 -1.00859 -0.272795 0 255 0
-0.139225 -1.01242 -0.273831 0 255 0
-0.15346 -1.01232 -0.274348 0 255 0
-0.151433 -0.998946 -0.270725 0 255 0
0.0631049 -25.826 0.450796 255 255 255
0.0630756 -25.814 0.450586 255 255 255
-0.505452 -44.5523 0.777714 255 255 255
-1.13696 -44.9168 0.784276 255 255 255
-1.40394 -55.4638 0.968434 255 255 255
-1.83275 -46.855 0.818483 255 255 255
-2.58176 -48.4539 0.846965 255 255 255
-2.58538 -48.5218 0.848152 255 255 255
-3.31201 -49.2152 0.860997 255 255 255
-2.02571 -30.1013 0.526609 255 255 255
-0.0156319 -0.617553 -0.142619 0 255 0
-0.0414786 -0.616356 -0.142619 0 255 0
-0.0499728 -0.615726 -0.142619 0 255 0
-0.0499728 -0.615726 -0.142619 0 255 0
-0.0584575 -0.614978 -0.142619 0 255 0
-0.0584575 -0.614978 -0.142619 0 255 0
-0.0670382 -0.614102 -0.142619 0 255 0
-0.0670382 -0.614102 -0.142619 0 255 0
-0.0754989 -0.61312 -0.142619 0 255 0
-0.0754989 -0.61312 -0.142619 0 255 0
-0.0841588 -0.611991 -0.142619 0 255 0
-0.0841588 -0.611991 -0.142619 0 255 0
-0.0890838 -0.587652 -0.13722 0 255 0
-0.089668 -0.591505 -0.13812 0 255 0
0.0629744 -25.7726 1.35069 255 255 255
0.0629597 -25.7666 1.35037 255 255 255
-0.291287 -25.6751 1.34566 255 255 255
-1.16484 -46.0181 2.41248 255 255 255
-1.78891 -45.7342 2.39866 255 255 255
-1.82825 -46.7401 2.45142 255 255 255
-2.57213 -48.2732 2.53348 255 255 255
-2.02257 -30.0547 1.57866 255 255 255
-3.8172 -47.0326 2.47298 255 255 255
-3.80169 -46.8415 2.46293 255 255 255
-4.58665 -48.252 2.54018 255 255 255
-5.25533 -55.2866 2.91051 255 255 255
-6.1078 -55.9504 2.94965 255 255 255
-6.12644 -56.1211 2.95866 255 255 255
-6.81762 -55.3653 2.92349 255 255 255
-6.76685 -54.953 2.90171 255 255 255
-7.58928 -55.1882 2.91951 255 255 255
-7.61322 -55.3623 2.92872 255 255 255
-8.94398 -59 3.12739 255 255 255
-9.01523 -59.47 3.1523 255 255 255
0.0215967 -8.83854 -1.71804 255 0 0
0.0214816 -8.79143 -1.70889 255 0 0
-0.223159 -8.81611 -1.71423 255 0 0
-0.347454 -8.88282 -1.72797 255 0 0
-0.347454 -8.88282 -1.72797 255 0 0
-0.472993 -8.87702 -1.72797 255 0 0
-0.472993 -8.87702 -1.72797 255 0 0
-0.59689 -8.86955 -1.72797 255 0 0
-0.592144 -8.79904 -1.71423 255 0 0
-0.713406 -8.79004 -1.71423 255 0 0
-0.719124 -8.86048 -1.72797 255 0 0
-0.841221 -8.84972 -1.72797 255 0 0
-0.834532 -8.77936 -1.71423 255 0 0
-0.95703 -8.76686 -1.71423 255 0 0
-0.954047 -8.73953 -1.70889 255 0 0
-1.07206 -8.70606 -1.70507 255 0 0
-1.07206 -8.70606 -1.70507 255 0 0
-1.19128 -8.66281 -1.69973 255 0 0
-1.19288 -8.67448 -1.70202 255 0 0
-1.31237 -8.65721 -1.70202 255 0 0
-1.30884 -8.63391 -1.69744 255 0 0
0.0628938 -25.7396 2.25193 255 255 255
0.0629815 -25.7755 2.25507 255 255 255
-0.488982 -43.1006 3.77105 255 192 203
-0.489886 -43.1803 3.77803 255 192 203
-1.08219 -42.7529 3.7416 255 192 203
-1.07871 -42.6155 3.72957 255 192 203
-1.73206 -44.2809 3.87704 255 192 203
-1.69048 -43.2177 3.78395 255 192 203
-2.57731 -48.3704 4.23786 255 192 203
-2.32342 -43.6053 3.82038 255 192 203
-2.02192 -30.045 2.63454 255 255 255
-4.16925 -51.3702 4.50909 255 255 255
-5.30662 -55.8261 4.90617 255 255 255
-4.61543 -48.5548 4.26715 255 192 203
-7.79715 -56.6998 5.00727 255 255 255
-7.79172 -56.6603 5.00379 255 255 255
-8.64804 -57.0478 5.04806 255 255 255
0.0256397 -10.4932 -1.66196 255 0 0
0.0256831 -10.5109 -1.66478 255 0 0
-0.11942 -10.5261 -1.66728 255 0 0
-0.119891 -10.5676 -1.67385 255 0 0
-0.266626 -10.5333 -1.66884 255 0 0
-0.267425 -10.5649 -1.67385 255 0 0
-0.411521 -10.5207 -1.66759 255 0 0
-0.413683 -10.576 -1.67635 255 0 0
-0.563151 -10.5691 -1.67635 255 0 0
-0.564202 -10.5888 -1.67948 255 0 0
-0.71199 -10.5799 -1.67948 255 0 0
-0.709602 -10.5444 -1.67385 255 0 0
-0.860351 -10.6006 -1.68449 255 0 0
-0.860351 -10.6006 -1.68449 255 0 0
-1.00942 -10.6192 -1.68949 255 0 0
-1.01166 -10.6428 -1.69325 255 0 0
-1.16187 -10.6433 -1.69575 255 0 0
-1.16016 -10.6276 -1.69325 255 0 0
-1.30609 -10.6067 -1.69262 255 0 0
-1.30851 -10.6263 -1.69575 255 0 0
-1.46075 -10.6224 -1.69825 255 0 0
-1.45752 -10.5989 -1.6945 255 0 0
-1.60648 -10.5973 -1.69763 255 0 0
-1.60529 -10.5895 -1.69638 255 0 0
0.0628672 -25.7287 3.1591 0 255 0
0.0630079 -25.7863 3.16617 0 255 0
-0.504216 -44.4434 5.45731 255 255 255
-0.502954 -44.3322 5.44366 255 255 255
-1.18999 -47.0118 5.77417 255 255 255
-1.18788 -46.9284 5.76393 255 255 255
-1.8348 -46.9076 5.76393 255 255 255
-1.8393 -47.0226 5.77807 255 255 255
-2.5759 -48.3439 5.9443 255 255 255
-2.55963 -48.0386 5.90676 255 255 255
-3.47722 -51.6702 6.35865 255 255 255
-2.02025 -30.0201 3.69435 255 192 203
-4.24358 -52.2861 6.44104 255 255 255
-3.89255 -47.9609 5.90823 255 255 255
-4.50498 -47.3929 5.84534 255 255 255
-4.77962 -50.282 6.20169 255 255 255
-6.03957 -55.3254 6.83346 255 255 255
-6.89303 -55.9776 6.9251 255 255 255
-8.94603 -59.0135 7.32873 255 255 255
0.0328572 -13.447 -1.65109 255 0 0
0.0330318 -13.5184 -1.65986 255 0 0
-0.152548 -13.4461 -1.65109 255 0 0
-0.153359 -13.5176 -1.65986 255 0 0
-0.342079 -13.5141 -1.65986 255 0 0
-0.342079 -13.5141 -1.65986 255 0 0
-0.528375 -13.5081 -1.65986 255 0 0
-0.528375 -13.5081 -1.65986 255 0 0
-0.719283 -13.4993 -1.65986 255 0 0
-0.719283 -13.4993 -1.65986 255 0 0
-0.907693 -13.488 -1.65986 255 0 0
-0.907693 -13.488 -1.65986 255 0 0
-1.09357 -13.4742 -1.65986 255 0 0
-1.09357 -13.4742 -1.65986 255 0 0
-1.28864 -13.5566 -1.67205 255 0 0
-1.29127 -13.5843 -1.67546 255 0 0
-1.47779 -13.5373 -1.67205 255 0 0
-1.47564 -13.5176 -1.66961 255 0 0
-1.6677 -13.5432 -1.67546 255 0 0
-1.67643 -13.6142 -1.68423 255 0 0
-1.86872 -13.5891 -1.68423 255 0 0
-1.86872 -13.5891 -1.68423 255 0 0
-2.05591 -13.562 -1.68423 255 0 0
0.0628829 -25.7351 4.07606 255 255 255
0.0631242 -25.8339 4.0917 255 255 255
-0.516583 -45.5335 7.21225 255 255 255
-0.529267 -46.6514 7.38934 255 255 255
-1.28794 -50.8813 8.06138 255 255 255
-1.13878 -44.9886 7.12778 255 255 255
-1.74313 -44.564 7.06364 255 255 255
-3.07116 -57.6387 9.14203 255 255 255
-3.08882 -57.9701 9.19459 255 255 255
-2.0349 -30.2378 4.80003 255 255 255
-2.02177 -30.0427 4.76906 255 255 255
-2.44794 -30.1616 4.79284 255 255 255
-5.71517 -60.1241 9.56565 255 255 255
-5.72638 -60.2421 9.58443 255 255 255
-6.50863 -59.6222 9.49933 255 255 255
-6.55107 -60.011 9.56127 255 255 255
-7.28419 -59.1543 9.43988 255 255 255
-9.84258 -71.5738 11.4429 255 255 255
0.0453922 -18.577 -1.62528 255 0 0
0.0456064 -18.6646 -1.63295 255 0 0
-0.213684 -18.8348 -1.64794 255 0 0
-0.214316 -18.8906 -1.65282 255 0 0
-0.479966 -18.9615 -1.65945 255 0 0
-0.480671 -18.9894 -1.66189 255 0 0
-0.745092 -19.0486 -1.66781 255 0 0
-0.748207 -19.1283 -1.67478 255 0 0
-1.01176 -18.9884 -1.66363 255 0 0
-1.01324 -19.0163 -1.66607 255 0 0
-1.28534 -19.0997 -1.67478 255 0 0
-1.28534 -19.0997 -1.67478 255 0 0
-1.54856 -19.0801 -1.67478 255 0 0
-1.81827 -19.1284 -1.68106 255 0 0
-1.81827 -19.1284 -1.68106 255 0 0
-2.099 -19.2279 -1.69222 255 0 0
0.0627417 -25.6773 4.99118 255 255 255
0.0629767 -25.7735 5.00988 255 255 255
-0.67965 -59.9068 11.6455 255 255 255
-1.44656 -57.1477 11.112 255 255 255
-3.42858 -64.3467 12.5255 255 255 255
-2.02004 -30.017 5.84791 255 255 255
-10.293 -67.8989 13.349 255 255 255
0.0627445 -25.6785 5.92836 255 255 255
-2.0195 -30.009 6.94379 255 255 255
0.062973 -25.772 -0.449853 255 255 255
-0.567179 -49.9932 -0.87269 255 255 255
-2.02424 -30.0794 -0.526225 255 255 255
0.0626963 -25.6588 6.87527 255 255 255
-2.02016 -30.0188 8.0617 255 255 255
0.175117 -1.02448 -0.278489 0 255 0
0.173164 -1.01305 -0.275383 0 255 0
0.159003 -1.01537 -0.275383 0 255 0
0.159601 -1.01919 -0.276419 0 255 0
0.144443 -1.01364 -0.274348 0 255 0
0.147168 -1.03277 -0.279525 0 255 0
0.133718 -1.04239 -0.281595 0 255 0
0.13126 -1.02322 -0.276419 0 255 0
0.117836 -1.03263 -0.278489 0 255 0
0.115646 -1.01344 -0.273313 0 255 0
0.103792 -1.03802 -0.279525 0 255 0
0.103023 -1.03033 -0.277454 0 255 0
0.088807 -1.03166 -0.277454 0 255 0
0.0894697 -1.03936 -0.279525 0 255 0
0.0745744 -1.03278 -0.277454 0 255 0
0.0748527 -1.03664 -0.278489 0 255 0
0.0605961 -1.04144 -0.279525 0 255 0
0.0599228 -1.02987 -0.276419 0 255 0
0.0457083 -1.03446 -0.277454 0 255 0
0.044685 -1.0113 -0.271242 0 255 0
0.0312605 -1.035 -0.277454 0 255 0
0.0313772 -1.03886 -0.278489 0 255 0
0.0166185 -1.02375 -0.274348 0 255 0
0.0167439 -1.03147 -0.276419 0 255 0
7.53294 -48.1043 0.849897 255 255 255
2.30958 -20.2395 0.355575 255 255 255
2.50292 -29.076 0.509401 255 255 255
3.1066 -43.0234 0.752932 255 255 255
2.5042 -43.0386 0.752513 255 255 255
2.53649 -43.5936 0.762216 255 255 255
7.08301 -41.4373 2.20313 255 255 255
6.1237 -39.1051 2.07439 255 255 255
6.41663 -40.9757 2.17362 255 255 255
5.66397 -39.7474 2.10411 255 255 255
5.76343 -40.4454 2.14106 255 255 255
5.23501 -40.8091 2.15624 255 255 255
5.25687 -40.9795 2.16524 255 255 255
4.60131 -40.3226 2.12693 255 255 255
5.19867 -45.5574 2.40306 255 255 255
4.55731 -45.5779 2.40055 255 255 255
4.86015 -48.6066 2.56007 255 255 255
3.67529 -42.6953 2.24584 255 255 255
3.66998 -42.6336 2.2426 255 255 255
3.24853 -44.989 2.36391 255 255 255
3.06182 -42.4033 2.22805 255 255 255
2.93818 -50.4972 2.65092 255 255 255
2.44767 -42.067 2.20837 255 255 255
1.87666 -42.4722 2.22805 255 255 255
1.94208 -43.9527 2.30571 255 255 255
1.30964 -43.3607 2.27347 255 255 255
0.7148 -44.0338 2.30802 255 255 255
0.709807 -43.7262 2.2919 255 255 255
1.33401 -8.5188 -1.67607 255 0 0
1.32976 -8.49164 -1.67072 255 0 0
1.2264 -8.60635 -1.6898 255 0 0
1.2264 -8.60635 -1.6898 255 0 0
1.10611 -8.62263 -1.6898 255 0 0
0.985616 -8.63724 -1.6898 255 0 0
0.985616 -8.63724 -1.6898 255 0 0
0.864925 -8.65016 -1.6898 255 0 0
0.864925 -8.65016 -1.6898 255 0 0
0.745578 -8.66126 -1.6898 255 0 0
0.745578 -8.66126 -1.6898 255 0 0
0.626088 -8.67072 -1.6898 255 0 0
0.626088 -8.67072 -1.6898 255 0 0
0.504965 -8.67861 -1.6898 255 0 0
0.383743 -8.68482 -1.6898 255 0 0
0.383743 -8.68482 -1.6898 255 0 0
0.265411 -8.78745 -1.70889 255 0 0
6.75153 -39.4981 3.50575 255 192 203
6.81095 -39.8457 3.53661 255 192 203
6.30049 -40.2341 3.56293 255 192 203
6.29217 -40.181 3.55822 255 192 203
5.80531 -40.7393 3.60023 255 192 203
5.72942 -40.2067 3.55317 255 192 203
5.13479 -40.0278 3.53068 255 192 203
5.51327 -42.9783 3.79093 255 192 203
4.70168 -41.2022 3.62812 255 192 203
5.19864 -45.5572 4.0116 255 192 203
4.80945 -48.0995 4.22915 255 255 255
4.27542 -42.7586 3.75955 255 192 203
3.69675 -42.9445 3.77105 255 192 203
3.69162 -42.885 3.76583 255 192 203
3.11634 -43.1583 3.7857 255 192 203
3.34794 -46.3657 4.06704 255 192 203
2.47063 -42.4617 3.7212 255 192 203
1.88352 -42.6274 3.73305 255 192 203
1.43649 -47.5606 4.16291 255 255 255
1.4413 -47.7199 4.17685 255 255 255
0.679425 -41.8546 3.66228 255 192 203
0.753997 -46.4484 4.06425 255 192 203
1.75069 -10.2419 -1.64569 255 0 0
1.75734 -10.2809 -1.65195 255 0 0
1.61607 -10.32 -1.65445 255 0 0
1.61485 -10.3122 -1.6532 255 0 0
1.47697 -10.3648 -1.65821 255 0 0
1.4714 -10.3257 -1.65195 255 0 0
1.33211 -10.3844 -1.65821 255 0 0
1.33211 -10.3844 -1.65821 255 0 0
1.187 -10.402 -1.65821 255 0 0
1.18252 -10.3627 -1.65195 255 0 0
1.04165 -10.4175 -1.65821 255 0 0
1.04165 -10.4175 -1.65821 255 0 0
0.901302 -10.4703 -1.66446 255 0 0
0.899946 -10.4545 -1.66196 255 0 0
0.756855 -10.4817 -1.66446 255 0 0
0.75401 -10.4423 -1.65821 255 0 0
0.611122 -10.5031 -1.66634 255 0 0
0.610893 -10.4991 -1.66571 255 0 0
0.463545 -10.4909 -1.66321 255 0 0
0.463894 -10.4988 -1.66446 255 0 0
0.317263 -10.5042 -1.66446 255 0 0
0.318098 -10.5319 -1.66884 255 0 0
0.170698 -10.5155 -1.66571 255 0 0
0.171211 -10.5471 -1.67072 255 0 0
6.86861 -40.183 5.00542 0 255 0
6.83851 -40.0069 4.98348 0 255 0
6.27803 -40.0907 4.98251 0 255 0
5.74036 -40.2835 4.99616 0 255 0
5.72244 -40.1577 4.98056 0 255 0
6.09119 -47.4834 5.878 255 255 255
5.28673 -46.3292 5.72542 255 255 255
5.24847 -45.9939 5.68399 255 255 255
4.6441 -46.4459 5.73127 255 255 255
4.65911 -46.596 5.7498 255 255 255
3.92122 -45.5522 5.61379 255 255 255
3.80749 -44.231 5.45097 255 255 255
3.18385 -44.0932 5.42806 255 255 255
2.43783 -41.898 5.15312 255 255 255
1.84385 -41.7296 5.12875 255 255 255
1.86838 -42.2849 5.197 255 255 255
1.27367 -42.1699 5.18018 255 255 255
0.743309 -45.79 5.62305 255 255 255
0.726233 -44.7381 5.49387 255 255 255
2.261 -13.2274 -1.64767 255 0 0
2.26568 -13.2548 -1.65109 255 0 0
2.08346 -13.3047 -1.65352 255 0 0
2.09145 -13.3557 -1.65986 255 0 0
1.90711 -13.3833 -1.65986 255 0 0
1.90711 -13.3833 -1.65986 255 0 0
1.72006 -13.4086 -1.65986 255 0 0
1.72006 -13.4086 -1.65986 255 0 0
1.53853 -13.4826 -1.6662 255 0 0
1.53268 -13.4313 -1.65986 255 0 0
1.345 -13.4514 -1.65986 255 0 0
1.345 -13.4514 -1.65986 255 0 0
1.15941 -13.4687 -1.65986 255 0 0
1.15941 -13.4687 -1.65986 255 0 0
0.973597 -13.4834 -1.65986 255 0 0
0.973597 -13.4834 -1.65986 255 0 0
0.785244 -13.4957 -1.65986 255 0 0
0.596739 -13.5053 -1.65986 255 0 0
0.596739 -13.5053 -1.65986 255 0 0
0.408118 -13.5123 -1.65986 255 0 0
0.408118 -13.5123 -1.65986 255 0 0
0.219416 -13.5167 -1.65986 255 0 0
0.219416 -13.5167 -1.65986 255 0 0
8.97842 -52.5259 8.43995 255 255 255
8.9245 -52.2105 8.38927 255 255 255
6.34296 -40.5053 6.49359 255 255 255
5.7903 -40.6339 6.50079 255 255 255
6.49451 -45.5757 7.29141 255 255 255
5.80501 -45.2525 7.22602 255 255 255
5.73312 -44.6921 7.13654 255 255 255
5.19255 -45.5038 7.25387 255 255 255
5.25369 -46.0396 7.33928 255 255 255
4.58423 -45.847 7.29767 255 255 255
4.93622 -49.3674 7.85802 255 255 255
4.42587 -51.4146 8.17339 255 255 255
4.51735 -52.4774 8.34234 255 255 255
3.26757 -45.2526 7.18597 255 255 255
3.25533 -45.0832 7.15907 255 255 255
2.59779 -44.647 7.08335 255 255 255
2.60283 -44.7338 7.09712 255 255 255
2.29034 -51.8347 8.21782 255 255 255
1.92533 -43.5738 6.90815 255 255 255
1.31837 -43.6497 6.91659 255 255 255
1.41659 -46.9017 7.43189 255 255 255
0.705301 -43.4486 6.88249 255 255 255
0.706583 -43.5276 6.89501 255 255 255
2.8457 -16.648 -1.47764 255 0 0
2.8692 -16.7855 -1.48984 255 0 0
2.6885 -17.1684 -1.52034 255 0 0
2.69281 -17.1959 -1.52279 255 0 0
2.45603 -17.2354 -1.52313 255 0 0
2.46053 -17.2669 -1.52592 255 0 0
2.22376 -17.3352 -1.52906 255 0 0
2.22427 -17.3391 -1.52941 255 0 0
1.98106 -17.3606 -1.52871 255 0 0
1.96705 -17.2379 -1.5179 255 0 0
1.73094 -17.3112 -1.52209 255 0 0
1.72936 -17.2954 -1.52069 255 0 0
1.50679 -17.5042 -1.53708 255 0 0
1.50782 -17.5161 -1.53812 255 0 0
1.27363 -17.6385 -1.54719 255 0 0
1.27822 -17.7021 -1.55277 255 0 0
1.03325 -17.758 -1.55625 255 0 0
1.02908 -17.6864 -1.54998 255 0 0
0.787847 -17.8304 -1.56148 255 0 0
0.794707 -17.9857 -1.57508 255 0 0
0.542729 -17.9691 -1.57281 255 0 0
0.547119 -18.1145 -1.58554 255 0 0
0.295506 -18.2041 -1.59286 255 0 0
0.298223 -18.3714 -1.6075 255 0 0
8.20937 -52.424 10.3144 255 255 255
7.19824 -45.967 9.04396 255 255 255
6.53109 -45.8325 8.99893 255 255 255
6.72746 -47.2105 9.2695 255 255 255
6.59572 -51.4164 10.0762 255 255 255
5.8398 -51.1758 10.0121 255 255 255
5.25372 -46.0399 9.00733 255 255 255
4.61821 -46.1869 9.02259 255 255 255
4.57055 -45.7103 8.92948 255 255 255
4.81999 -55.993 10.9242 255 255 255
4.70684 -54.6786 10.6677 255 255 255
3.94232 -54.5973 10.6403 255 255 255
3.67198 -50.8533 9.91062 255 255 255
2.9397 -50.5233 9.83735 255 255 255
2.94027 -50.5331 9.83926 255 255 255
2.23036 -50.4771 9.82132 255 255 255
2.44493 -55.3333 10.7662 255 255 255
1.3398 -44.3591 8.62647 255 255 255
1.3411 -44.4023 8.63487 255 255 255
0.897964 -55.3172 10.754 255 255 255
0.738127 -45.4708 8.8398 255 255 255
3.98268 -23.2996 -1.23879 255 0 0
3.99479 -23.3705 -1.24256 255 0 0
3.67243 -23.4516 -1.24403 255 0 0
3.18699 -20.3517 -1.07959 255 255 255
3.36282 -23.5989 -1.24926 255 0 0
2.92102 -20.4985 -1.08513 255 255 255
2.93237 -22.8591 -1.20781 255 255 255
2.59946 -20.2639 -1.07069 255 255 255
2.73112 -23.9336 -1.26245 255 0 0
2.72524 -23.882 -1.25973 255 0 0
2.38238 -23.8263 -1.25491 255 0 0
2.0557 -20.5591 -1.08283 255 255 255
2.0432 -23.7355 -1.24853 255 0 0
2.04166 -23.7176 -1.24758 255 0 0
1.38908 -19.2374 -1.01082 255 255 255
1.41425 -19.5861 -1.02913 255 255 255
1.41572 -24.3314 -1.27731 255 0 0
0.743636 -24.621 -1.29092 255 0 0
0.393318 -24.2296 -1.26998 255 0 0
2.97909 -51.2003 11.8405 255 255 255
7.03841 -41.1764 -0.729162 255 255 255
7.02999 -41.1271 -0.728289 255 255 255
6.44982 -41.1877 -0.727696 255 255 255
3.17696 -20.2876 -0.358438 255 255 255
2.87324 -20.1632 -0.355506 255 255 255
2.90399 -20.379 -0.35931 255 255 255
3.83487 -29.8944 -0.526085 255 255 255
3.57255 -27.8495 -0.490098 255 255 255
2.28646 -20.0369 -0.352015 255 255 255
2.32749 -20.3965 -0.358333 255 255 255
2.04527 -20.4549 -0.358821 255 255 255
2.50532 -29.1039 -0.509889 255 255 255
1.68553 -19.5806 -0.343044 255 255 255
1.40028 -19.3925 -0.339379 255 255 255
1.40187 -19.4145 -0.339763 255 255 255
1.13287 -19.4701 -0.340427 255 255 255
1.76359 -30.3101 -0.52996 255 255 255
1.33934 -30.3118 -0.529611 255 255 255
1.43463 -47.4991 -0.829478 255 255 255
0.775652 -47.7824 -0.834155 255 255 255
0.419601 -25.8487 -0.451249 255 255 255
2.04895 -5.86729 -1.66524 255 0 0
2.05405 -5.88188 -1.66938 255 0 0
1.96541 -5.88766 -1.66317 255 0 0
1.96908 -5.89865 -1.66628 255 0 0
1.89357 -5.94766 -1.67249 255 0 0
1.8877 -5.92925 -1.66731 255 0 0
1.80586 -5.95873 -1.66835 255 0 0
1.79577 -5.92545 -1.65903 255 0 0
1.72674 -5.9942 -1.67145 255 0 0
1.72674 -5.9942 -1.67145 255 0 0
1.65105 -6.04352 -1.6787 255 0 0
0.264225 -1.02316 -0.283148 0 255 0
0.256013 -0.991358 -0.274348 0 255 0
0.254026 -1.04364 -0.287807 0 255 0
0.248543 -1.02111 -0.281595 0 255 0
0.23254 -1.01695 -0.279525 0 255 0
0.233401 -1.02072 -0.28056 0 255 0
0.214275 -1.00121 -0.274348 0 255 0
0.221148 -1.03332 -0.283148 0 255 0
0.205745 -1.03059 -0.281595 0 255 0
0.204611 -1.02491 -0.280042 0 255 0
0.189226 -1.02197 -0.278489 0 255 0
0.181839 -0.982075 -0.267619 0 255 0
13.6781 -39.1681 0.72417 255 255 255
13.1951 -41.4456 0.759215 255 255 255
17.3315 -57.1883 1.04306 255 255 255
18.8973 -65.6 1.19162 255 255 255
11.5754 -42.3706 0.766684 255 255 255
10.1126 -41.5465 0.74637 255 255 255
10.1088 -41.5309 0.74609 255 255 255
9.50387 -41.5628 0.744206 255 255 255
9.20721 -43.0211 0.767941 255 255 255
9.12938 -42.6574 0.761449 255 255 255
9.02346 -45.1991 0.804521 255 255 255
8.59361 -43.0459 0.766196 255 255 255
3.08515 -16.6622 0.295783 255 255 255
14.0203 -40.148 2.22867 255 255 255
13.4902 -38.6301 2.14441 255 255 255
12.9898 -38.9128 2.14996 255 255 255
13.0961 -39.2311 2.16755 255 255 255
12.4586 -39.1323 2.15226 255 255 255
13.1182 -43.2858 2.3704 255 255 255
11.2039 -41.0108 2.22805 255 255 255
11.4976 -42.0858 2.28645 255 255 255
12.095 -49.691 2.68023 255 255 255
10.6067 -46.3855 2.4937 255 255 255
11.4116 -49.9057 2.68295 255 255 255
8.5987 -40.1778 2.15331 255 255 255
8.58324 -40.1055 2.14944 255 255 255
3.2849 -16.4543 0.879349 255 255 255
3.08503 -16.6615 0.888036 255 255 255
1.58273 -8.548 -1.6898 255 0 0
13.7391 -39.3428 3.6459 255 192 203
13.5894 -38.914 3.60616 255 192 203
13.0862 -39.2016 3.61574 255 192 203
13.2269 -39.623 3.65461 255 192 203
12.3769 -38.8755 3.56938 255 192 203
12.6059 -39.595 3.63544 255 192 203
12.7303 -42.0057 3.84008 255 255 255
12.5373 -41.3688 3.78186 255 192 203
12.0567 -41.8537 3.81062 255 192 203
11.8333 -41.0783 3.74003 255 192 203
15.9022 -58.2084 5.2792 255 255 255
15.7289 -57.5742 5.22167 255 255 255
14.9524 -57.9 5.23178 255 255 255
13.3194 -51.5764 4.66039 255 255 255
12.5471 -51.5483 4.64157 255 255 255
12.4999 -51.3547 4.62414 255 255 255
11.8394 -51.7767 4.6468 255 255 255
11.771 -51.4776 4.61995 255 255 255
11.0487 -51.6253 4.61891 255 255 255
10.5258 -49.1821 4.40032 255 255 255
9.00337 -45.0984 4.02346 255 255 255
8.01144 -40.1298 3.58018 255 192 203
7.44637 -40.2162 3.57827 255 192 203
7.5367 -40.704 3.62167 255 192 203
3.40611 -9.75359 -1.6363 255 0 0
3.4022 -9.7424 -1.63443 255 0 0
3.26505 -9.78089 -1.63318 255 0 0
3.27005 -9.79588 -1.63568 255 0 0
3.13416 -9.84435 -1.6363 255 0 0
3.12817 -9.82552 -1.63318 255 0 0
3.00214 -9.90605 -1.63943 255 0 0
2.99068 -9.86824 -1.63318 255 0 0
2.85871 -9.92372 -1.63568 255 0 0
2.8598 -9.92752 -1.6363 255 0 0
2.72473 -9.97363 -1.63756 255 0 0
2.71953 -9.95457 -1.63443 255 0 0
2.58028 -9.99157 -1.63443 255 0 0
2.59312 -10.0413 -1.64256 255 0 0
2.44332 -10.0381 -1.6363 255 0 0
2.44893 -10.0612 -1.64006 255 0 0
2.30733 -10.0905 -1.63943 255 0 0
2.31614 -10.129 -1.64569 255 0 0
2.1654 -10.1179 -1.63881 255 0 0
2.18276 -10.199 -1.65195 255 0 0
2.03729 -10.2049 -1.64819 255 0 0
2.04193 -10.2282 -1.65195 255 0 0
1.89461 -10.2324 -1.64819 255 0 0
1.89892 -10.2557 -1.65195 255 0 0
21.1275 -60.4998 7.86837 255 255 255
14.0867 -40.3382 5.24623 255 255 255
13.6185 -40.796 5.28084 255 255 255
12.8362 -40.3182 5.19529 255 255 255
12.7657 -40.0969 5.16677 255 255 255
15.3424 -63.0325 7.96538 0 255 0
11.389 -49.8068 6.27335 0 255 0
11.2005 -48.9824 6.16951 0 255 0
10.4116 -48.6487 6.10858 0 255 0
10.4407 -48.7846 6.12564 0 255 0
10.8374 -54.2851 6.7969 0 255 0
10.755 -53.8724 6.74522 0 255 0
9.32881 -50.3828 6.29138 0 255 0
7.53258 -40.6818 5.08 0 255 0
4.3666 -12.504 -1.62622 255 0 0
4.36922 -12.5115 -1.6272 255 0 0
4.20133 -12.5856 -1.62915 255 0 0
4.2051 -12.5969 -1.63061 255 0 0
4.02881 -12.6544 -1.63061 255 0 0
4.03362 -12.6695 -1.63256 255 0 0
3.86325 -12.7474 -1.63549 255 0 0
3.86325 -12.7474 -1.63549 255 0 0
3.68712 -12.7995 -1.63549 255 0 0
3.69591 -12.83 -1.63939 255 0 0
3.5103 -12.8491 -1.63549 255 0 0
3.51867 -12.8797 -1.63939 255 0 0
3.34544 -12.9545 -1.6428 255 0 0
3.34842 -12.9661 -1.64426 255 0 0
3.16706 -13.0115 -1.64426 255 0 0
3.17363 -13.0385 -1.64767 255 0 0
2.99128 -13.0816 -1.64767 255 0 0
3.0019 -13.128 -1.65352 255 0 0
2.81415 -13.1492 -1.65109 255 0 0
2.79837 -13.0755 -1.64182 255 0 0
2.60772 -13.0622 -1.63549 255 0 0
2.60772 -13.0622 -1.63549 255 0 0
2.42509 -13.0973 -1.63549 255 0 0
2.44316 -13.1949 -1.64767 255 0 0
20.3767 -58.35 9.78904 255 255 255
19.5215 -58.4792 9.76464 255 255 255
19.7404 -59.135 9.87414 255 255 255
18.2381 -57.2854 9.52185 255 255 255
18.2021 -57.1725 9.50308 255 255 255
17.3219 -57.1564 9.45928 255 255 255
17.2789 -57.0146 9.43581 255 255 255
16.7312 -58.0807 9.57316 255 255 255
17.2211 -59.7815 9.85349 255 255 255
16.2078 -59.3273 9.74086 255 255 255
16.161 -59.1558 9.7127 255 255 255
16.5505 -64.0884 10.4836 255 255 255
15.6772 -60.7068 9.93046 255 255 255
14.9141 -61.273 9.98803 255 255 255
15.0804 -61.9563 10.0994 255 255 255
10.0124 -50.1528 8.10018 255 255 255
10.0082 -50.1315 8.09674 255 255 255
9.49642 -51.2881 8.2613 255 255 255
9.71041 -52.4438 8.44746 255 255 255
5.55582 -15.9094 -1.47433 255 0 0
5.55582 -15.9094 -1.47433 255 0 0
5.3309 -15.9694 -1.47293 255 0 0
5.36749 -16.079 -1.48304 255 0 0
5.14246 -16.1524 -1.48304 255 0 0
5.14246 -16.1524 -1.48304 255 0 0
4.91644 -16.2226 -1.48304 255 0 0
4.91644 -16.2226 -1.48304 255 0 0
4.70113 -16.3195 -1.48583 255 0 0
4.70995 -16.3501 -1.48862 255 0 0
4.49982 -16.4712 -1.49385 255 0 0
4.50402 -16.4865 -1.49524 255 0 0
4.2734 -16.5478 -1.49524 255 0 0
4.27639 -16.5594 -1.49629 255 0 0
4.06173 -16.6872 -1.50257 255 0 0
4.07209 -16.7298 -1.5064 255 0 0
3.82301 -16.719 -1.50047 255 0 0
3.83367 -16.7656 -1.50466 255 0 0
3.59588 -16.8019 -1.50326 255 0 0
3.52875 -16.4882 -1.4752 255 0 0
3.26636 -16.3614 -1.45968 255 0 0
3.26987 -16.379 -1.46125 255 0 0
3.05828 -16.5171 -1.46962 255 0 0
3.05465 -16.4975 -1.46788 255 0 0
19.4948 -61.2328 12.4911 255 255 255
19.4865 -61.2066 12.4858 255 255 255
18.4751 -60.9617 12.382 255 255 255
18.9568 -62.5512 12.7048 255 255 255
16.8492 -58.4902 11.8317 255 255 255
17.5883 -61.0559 12.3507 255 255 255
17.2094 -62.9933 12.6934 255 255 255
17.0552 -62.4289 12.5797 255 255 255
15.4986 -60.0149 12.0484 255 255 255
7.4375 -21.2977 -1.18227 255 255 255
7.16845 -21.474 -1.18646 255 255 255
7.16845 -21.474 -1.18646 255 255 255
6.87762 -21.6025 -1.18813 255 255 255
6.8861 -21.6291 -1.1896 255 255 255
6.62399 -21.857 -1.19692 255 255 255
6.65295 -21.9525 -1.20216 255 0 0
6.07987 -22.2548 -1.20907 255 0 0
5.77954 -22.3801 -1.21137 255 0 0
5.79253 -22.4303 -1.21409 255 0 0
5.48256 -22.5245 -1.21493 255 0 0
5.49579 -22.5789 -1.21786 255 0 0
5.18624 -22.6807 -1.21932 255 0 0
5.22452 -22.8481 -1.22832 255 0 0
4.8933 -22.8642 -1.22539 255 0 0
4.90501 -22.9188 -1.22832 255 0 0
4.60809 -23.0822 -1.23356 255 0 0
3.09012 -16.689 -0.889502 255 255 255
4.30355 -23.2425 -1.23879 255 0 0
12.4261 -35.583 -0.657886 255 255 255
12.4657 -35.6962 -0.65998 255 255 255
12.0356 -36.0544 -0.663471 255 255 255
12.0762 -36.1758 -0.665705 255 255 255
11.6075 -36.459 -0.667869 255 255 255
11.6682 -36.6496 -0.671359 255 255 255
11.1623 -36.8319 -0.671778 255 255 255
11.1693 -36.8548 -0.672197 255 255 255
10.6877 -37.1014 -0.673942 255 255 255
10.7708 -37.3896 -0.679178 255 255 255
10.2806 -37.631 -0.680923 255 255 255
10.348 -37.8779 -0.685391 255 255 255
9.87916 -38.2549 -0.689649 255 255 255
9.92916 -38.4486 -0.69314 255 255 255
9.01934 -39.4438 -0.706264 255 255 255
8.56065 -40 -0.714013 255 255 255
8.59245 -40.1486 -0.716666 255 255 255
8.08428 -40.4946 -0.720784 255 255 255
8.15396 -40.8437 -0.726997 255 255 255
3.08843 -16.6799 -0.296098 255 255 255
7.63023 -41.2092 -0.731535 255 255 255
0.369128 -0.69423 -0.210679 0 255 0
2.29368 -5.78433 -1.66731 255 0 0
2.21921 -5.82985 -1.67145 255 0 0
2.21371 -5.8154 -1.66731 255 0 0
2.13597 -5.85263 -1.66938 255 0 0
2.13332 -5.84537 -1.66731 255 0 0
25.7959 -46.9226 0.934646 255 255 255
25.7959 -46.9226 0.934646 255 255 255
24.3121 -45.7244 0.90393 255 255 255
24.3234 -45.7456 0.904349 255 255 255
26.4555 -51.4769 1.01025 255 255 255
19.9731 -38.8634 0.762705 255 255 255
18.7327 -37.7202 0.73513 255 255 255
18.7949 -37.8455 0.737574 255 255 255
13.7897 -28.7557 0.556662 255 255 255
13.8667 -28.9161 0.559768 255 255 255
17.2234 -38.6299 0.738272 255 255 255
17.3862 -38.9952 0.745253 255 255 255
27.062 -63.0491 1.19762 255 255 255
12.4406 -28.9841 0.550554 255 255 255
12.3193 -29.8444 0.563573 255 255 255
12.3178 -29.8407 0.563503 255 255 255
11.992 -30.2422 0.567866 255 255 255
15.7229 -41.3039 0.771431 255 255 255
15.459 -42.3583 0.787069 255 255 255
28.7232 -52.2473 3.12467 255 255 255
21.1931 -38.5502 2.3055 255 255 255
20.515 -38.5831 2.29012 255 255 255
18.4306 -34.6629 2.05743 255 255 255
17.6435 -34.3306 2.02289 255 255 255
17.7805 -34.5971 2.03859 255 255 255
17.5114 -35.2611 2.06329 255 255 255
17.1028 -34.4382 2.01514 255 255 255
16.4303 -34.262 1.99138 255 255 255
15.7349 -34.0221 1.96448 255 255 255
15.6007 -33.7321 1.94773 255 255 255
14.978 -33.5938 1.92764 255 255 255
15.1439 -33.9659 1.94899 255 255 255
14.5603 -33.9226 1.93465 255 255 255
14.5547 -33.9097 1.93392 255 255 255
14.1485 -34.2758 1.94334 255 255 255
14.7345 -35.6955 2.02383 255 255 255
14.0337 -35.3909 1.99526 255 255 255
14.178 -35.7548 2.01577 255 255 255
14.8546 -39.023 2.18827 255 255 255
15.0807 -41.3217 2.30529 255 255 255
20.801 -56.9956 3.17972 255 255 255
20.7882 -37.8137 3.77524 255 255 255
20.2264 -38.0404 3.76931 255 255 255
20.6277 -38.7951 3.84409 255 255 255
23.8954 -46.4954 4.57358 255 255 255
17.6898 -34.4206 3.38583 255 192 203
18.9682 -38.1944 3.73096 255 255 255
17.0026 -34.2365 3.34434 255 192 203
16.379 -34.1551 3.31401 255 192 203
16.4178 -34.2359 3.32185 255 192 203
16.7653 -36.2503 3.49425 255 192 203
16.4944 -35.6644 3.43777 255 192 203
15.7593 -35.3461 3.38583 255 192 203
15.6473 -35.095 3.36177 255 192 203
15.258 -35.5481 3.38443 255 192 203
15.2289 -35.4803 3.37798 255 192 203
14.881 -36.0505 3.41215 255 192 203
22.0971 -55.7258 5.24468 255 255 255
21.9679 -55.3998 5.214 255 255 255
21.7605 -57.1647 5.35136 255 255 255
21.2941 -55.9395 5.23667 255 255 255
20.4361 -55.9957 5.21505 255 255 255
15.2161 -41.6926 3.88296 255 255 255
4.82239 -9.0696 -1.62692 255 0 0
4.82239 -9.0696 -1.62692 255 0 0
4.69529 -9.13605 -1.62692 255 0 0
4.69529 -9.13605 -1.62692 255 0 0
4.56888 -9.19992 -1.62692 255 0 0
4.56888 -9.19992 -1.62692 255 0 0
4.45185 -9.28341 -1.63067 255 0 0
4.45527 -9.29053 -1.63192 255 0 0
4.33673 -9.37694 -1.6363 255 0 0
4.32512 -9.35184 -1.63192 255 0 0
4.19577 -9.41058 -1.63192 255 0 0
4.19255 -9.40336 -1.63067 255 0 0
4.06085 -9.46098 -1.63067 255 0 0
4.07799 -9.50092 -1.63756 255 0 0
3.91931 -9.49485 -1.62692 255 0 0
3.9374 -9.53867 -1.63443 255 0 0
3.80384 -9.59272 -1.63443 255 0 0
3.79801 -9.57802 -1.63192 255 0 0
3.66559 -9.62948 -1.63192 255 0 0
3.67121 -9.64425 -1.63443 255 0 0
3.53789 -9.69395 -1.63443 255 0 0
3.52977 -9.67168 -1.63067 255 0 0
28.684 -52.1761 7.3107 255 255 255
28.6917 -52.19 7.31265 255 255 255
27.9555 -52.5767 7.31143 255 255 255
27.9835 -52.6293 7.31874 255 255 255
27.2559 -53.0343 7.32142 255 255 255
27.275 -53.0714 7.32654 255 255 255
26.5627 -53.4868 7.33263 255 255 255
26.5813 -53.5242 7.33775 255 255 255
25.8554 -53.916 7.3419 255 255 255
25.8691 -53.9446 7.3458 255 255 255
25.1617 -54.4051 7.35993 255 255 255
28.6065 -61.8534 8.36755 255 255 255
24.6695 -55.3306 7.43842 255 255 255
15.8794 -35.6155 4.788 255 255 255
15.4871 -36.0819 4.82115 255 255 255
15.5998 -36.3445 4.85625 255 255 255
21.8093 -57.293 7.52714 255 255 255
14.539 -39.8374 5.20699 255 255 255
14.4907 -39.705 5.18968 255 255 255
6.29645 -11.4532 -1.60478 255 0 0
6.32131 -11.4984 -1.61111 255 0 0
6.12474 -11.519 -1.60185 255 0 0
6.13592 -11.54 -1.60478 255 0 0
5.96331 -11.6033 -1.60185 255 0 0
5.96331 -11.6033 -1.60185 255 0 0
5.81866 -11.7165 -1.60624 255 0 0
5.83631 -11.752 -1.61111 255 0 0
5.67373 -11.8314 -1.61111 255 0 0
5.67373 -11.8314 -1.61111 255 0 0
5.50798 -11.9094 -1.61111 255 0 0
5.50798 -11.9094 -1.61111 255 0 0
5.36266 -12.0278 -1.61696 255 0 0
5.35942 -12.0205 -1.61599 255 0 0
5.18324 -12.0759 -1.61355 255 0 0
5.19107 -12.0942 -1.61599 255 0 0
5.02776 -12.1802 -1.61794 255 0 0
5.05351 -12.2425 -1.62622 255 0 0
4.85574 -12.2455 -1.61745 255 0 0
4.87331 -12.2898 -1.6233 255 0 0
4.69775 -12.3409 -1.62135 255 0 0
4.70339 -12.3558 -1.6233 255 0 0
4.5394 -12.4381 -1.62574 255 0 0
4.53259 -12.4195 -1.6233 255 0 0
29.5943 -53.8317 9.7296 255 255 255
28.9019 -54.3566 9.75056 255 255 255
28.9112 -54.374 9.75369 255 255 255
28.1582 -54.7899 9.75682 255 255 255
28.1745 -54.8216 9.76245 255 255 255
27.4335 -55.2402 9.76871 255 255 255
27.4625 -55.2986 9.77903 255 255 255
26.7239 -55.7272 9.78873 255 255 255
28.5502 -61.7318 10.7724 255 255 255
28.5751 -61.7856 10.7818 255 255 255
27.7495 -62.2386 10.793 255 255 255
27.7865 -62.3216 10.8074 255 255 255
26.9401 -62.7652 10.8181 255 255 255
26.969 -62.8324 10.8296 255 255 255
26.1313 -63.3051 10.8472 255 255 255
23.7254 -57.4767 9.84849 255 255 255
22.9075 -57.7693 9.84286 255 255 255
25.3388 -63.9006 10.8875 255 255 255
24.4883 -64.3307 10.9022 255 255 255
22.8425 -60.007 10.1695 255 255 255
21.2924 -58.3418 9.8366 255 255 255
21.3208 -58.4198 9.84974 255 255 255
7.89565 -14.3621 -1.43389 255 0 0
7.89181 -14.3552 -1.43319 255 0 0
7.71867 -14.5167 -1.43842 255 0 0
7.74486 -14.566 -1.4433 255 0 0
7.54438 -14.6798 -1.444 255 0 0
7.56624 -14.7223 -1.44818 255 0 0
7.3519 -14.8038 -1.44609 255 0 0
7.36253 -14.8252 -1.44818 255 0 0
7.15743 -14.9253 -1.44818 255 0 0
7.16432 -14.9397 -1.44957 255 0 0
6.95503 -15.0383 -1.44957 255 0 0
6.94834 -15.0238 -1.44818 255 0 0
6.76163 -15.1655 -1.45271 255 0 0
6.76812 -15.1801 -1.45411 255 0 0
6.57595 -15.3207 -1.45864 255 0 0
6.5618 -15.2877 -1.4555 255 0 0
6.369 -15.4294 -1.46038 255 0 0
6.38268 -15.4626 -1.46352 255 0 0
6.18673 -15.602 -1.4684 255 0 0
6.18967 -15.6094 -1.4691 255 0 0
5.96819 -15.6784 -1.4677 255 0 0
5.98379 -15.7194 -1.47154 255 0 0
5.76102 -15.7854 -1.47014 255 0 0
5.77195 -15.8153 -1.47293 255 0 0
30.7112 -55.8635 12.3915 255 255 255
30.7169 -55.8739 12.3938 255 255 255
29.9642 -56.3545 12.4064 255 255 255
29.9799 -56.384 12.4129 255 255 255
29.187 -56.7918 12.4117 255 255 255
29.2247 -56.8651 12.4278 255 255 255
