ply
format ascii 1.0
element vertex 1343
property float x
property float y
property float z
property uchar red
property uchar green
property uchar blue
end_header
2.10065 -2.38524 0.503406 255 0 0
2.1111 -2.3971 0.505909 255 0 0
2.10954 -2.46385 0.513731 255 0 0
2.12496 -2.48186 0.517485 255 0 0
2.10021 -2.52343 0.519988 255 0 0
2.11537 -2.54165 0.523743 255 0 0
2.09877 -2.59361 0.528436 255 0 0
2.12859 -2.63047 0.535944 255 0 0
2.11852 -2.69409 0.542828 255 0 0
2.13317 -2.71272 0.546582 255 0 0
2.1066 -2.75831 0.549711 255 0 0
2.12818 -2.78657 0.555342 255 0 0
2.11781 -2.85371 0.562851 255 0 0
2.14606 -2.89178 0.57036 255 0 0
2.12858 -2.95352 0.576617 255 0 0
2.14244 -2.97275 0.580372 255 0 0
2.12337 -3.03474 0.586629 255 0 0
2.15055 -3.07359 0.594138 255 0 0
2.14294 -3.15561 0.60415 255 0 0
2.15848 -3.17849 0.60853 255 0 0
2.1291 -3.23141 0.61291 255 0 0
2.16388 -3.28419 0.622922 255 0 0
2.1476 -3.36069 0.631682 255 0 0
2.17951 -3.41063 0.641068 255 0 0
2.10953 -2.39532 -0.279247 255 0 0
2.12533 -2.41326 -0.281339 255 0 0
2.11475 -2.46994 -0.284476 255 0 0
2.1316 -2.48961 -0.286742 255 0 0
2.12722 -2.55589 -0.290926 255 0 0
2.13486 -2.56507 -0.291972 255 0 0
2.11684 -2.61595 -0.294412 255 0 0
2.14191 -2.64692 -0.297898 255 0 0
2.12322 -2.70006 -0.300513 255 0 0
2.15154 -2.73609 -0.304522 255 0 0
2.13079 -2.78998 -0.307137 255 0 0
2.14288 -2.80581 -0.30888 255 0 0
2.12299 -2.86069 -0.311669 255 0 0
2.14911 -2.89589 -0.315504 255 0 0
2.13643 -2.96441 -0.319687 255 0 0
2.16438 -3.0032 -0.323871 255 0 0
2.14052 -3.05925 -0.32666 255 0 0
2.15879 -3.08537 -0.329449 255 0 0
2.14013 -3.15147 -0.333284 255 0 0
2.17595 -3.20421 -0.338862 255 0 0
2.15182 -3.26589 -0.342173 255 0 0
2.16936 -3.29251 -0.344962 255 0 0
2.14678 -3.35941 -0.348797 255 0 0
2.17897 -3.40978 -0.354027 255 0 0
2.11501 -2.40154 0.622037 255 0 0
2.13188 -2.4207 0.626998 255 0 0
2.11064 -2.46514 0.630815 255 0 0
2.12596 -2.48303 0.635394 255 0 0
2.11746 -2.54416 0.643408 255 0 0
2.14384 -2.57585 0.651422 255 0 0
2.1217 -2.62195 0.65562 255 0 0
2.13899 -2.64332 0.660962 255 0 0
2.12251 -2.69916 0.66745 255 0 0
2.14435 -2.72694 0.674319 255 0 0
2.12823 -2.78663 0.68157 255 0 0
2.15683 -2.82407 0.690729 255 0 0
2.12821 -2.86773 0.694163 255 0 0
2.15863 -2.90872 0.704085 255 0 0
2.14306 -2.97362 0.712481 255 0 0
2.16602 -3.00547 0.720113 255 0 0
2.14298 -3.06277 0.726601 255 0 0
2.16662 -3.09655 0.734615 255 0 0
2.14523 -3.15898 0.742247 255 0 0
2.1717 -3.19796 0.751406 255 0 0
2.15384 -3.26896 0.760946 255 0 0
2.17977 -3.3083 0.770105 255 0 0
2.15556 -3.37315 0.778119 255 0 0
2.18411 -3.41782 0.788423 255 0 0
2.116 -2.40267 -0.167789 255 0 0
2.13052 -2.41916 -0.16894 255 0 0
2.11602 -2.47142 -0.170511 255 0 0
2.11732 -2.47294 -0.170615 255 0 0
2.11581 -2.54218 -0.173337 255 0 0
2.14775 -2.58055 -0.175953 255 0 0
2.13584 -2.63942 -0.177942 255 0 0
2.14714 -2.65339 -0.178884 255 0 0
2.12964 -2.70823 -0.180559 255 0 0
2.14939 -2.73335 -0.182234 255 0 0
2.12872 -2.78728 -0.183804 255 0 0
2.16266 -2.83172 -0.186735 255 0 0
2.13413 -2.8757 -0.187677 255 0 0
2.14246 -2.88693 -0.188409 255 0 0
2.13114 -2.95707 -0.191026 255 0 0
2.16033 -2.99758 -0.193643 255 0 0
2.14918 -3.07163 -0.196469 255 0 0
2.17552 -3.10927 -0.198877 255 0 0
2.14087 -3.15256 -0.199714 255 0 0
2.17117 -3.19717 -0.20254 255 0 0
2.145 -3.25553 -0.20432 255 0 0
2.18565 -3.31724 -0.208192 255 0 0
2.15741 -3.37604 -0.209972 255 0 0
2.17354 -3.40128 -0.211542 255 0 0
2.11354 -2.39987 0.738289 255 0 0
2.129 -2.41742 0.743688 255 0 0
2.11785 -2.47356 0.751786 255 0 0
2.13306 -2.49132 0.757185 255 0 0
2.11801 -2.54483 0.764384 255 0 0
2.14295 -2.57478 0.773382 255 0 0
2.13421 -2.63741 0.78328 255 0 0
2.14892 -2.65559 0.788678 255 0 0
2.1285 -2.70678 0.794977 255 0 0
2.14054 -2.7221 0.799476 255 0 0
2.13024 -2.78926 0.810274 255 0 0
2.16099 -2.82952 0.821971 255 0 0
2.14964 -2.89661 0.832769 255 0 0
2.16242 -2.91382 0.837718 255 0 0
2.13747 -2.96586 0.844016 255 0 0
2.16596 -3.00539 0.855264 255 0 0
2.15954 -3.08643 0.869661 255 0 0
2.18076 -3.11677 0.878209 255 0 0
2.14251 -3.15497 0.880458 255 0 0
2.17754 -3.20656 0.894855 255 0 0
2.15936 -3.27733 0.906103 255 0 0
2.19689 -3.33429 0.921849 255 0 0
2.16901 -3.39419 0.929948 255 0 0
2.20888 -3.45659 0.947044 255 0 0
2.10272 -2.38759 -0.0555336 255 0 0
2.11462 -2.4011 -0.0558477 255 0 0
2.1082 -2.46229 -0.0565807 255 0 0
2.12901 -2.48659 -0.0571392 255 0 0
2.10687 -2.53144 -0.0574882 255 0 0
2.13246 -2.56218 -0.0581863 255 0 0
2.10951 -2.60689 -0.0585354 255 0 0
2.13467 -2.63798 -0.0592335 255 0 0
2.12235 -2.69896 -0.0599316 255 0 0
2.13471 -2.71468 -0.0602806 255 0 0
2.12404 -2.78114 -0.0610834 255 0 0
2.14103 -2.80339 -0.0615721 255 0 0
2.13316 -2.87439 -0.0624796 255 0 0
2.14269 -2.88724 -0.0627589 255 0 0
2.13257 -2.95905 -0.0636664 255 0 0
2.14894 -2.98177 -0.064155 255 0 0
2.1369 -3.05408 -0.0650626 255 0 0
2.16212 -3.09013 -0.0658305 255 0 0
2.13786 -3.14814 -0.0664239 255 0 0
2.16146 -3.18288 -0.0671569 255 0 0
2.13991 -3.24781 -0.0678899 255 0 0
2.16632 -3.28789 -0.0687276 255 0 0
2.15035 -3.36499 -0.0697049 255 0 0
2.17834 -3.4088 -0.0706124 255 0 0
2.12204 -2.40952 0.860314 255 0 0
2.13736 -2.42692 0.866526 255 0 0
2.12588 -2.48294 0.875844 255 0 0
2.14598 -2.50642 0.884126 255 0 0
2.13302 -2.56286 0.893443 255 0 0
2.14785 -2.58068 0.899655 255 0 0
2.12422 -2.62507 0.904831 255 0 0
2.15096 -2.65811 0.916219 255 0 0
2.13752 -2.71825 0.926572 255 0 0
2.15662 -2.74255 0.934854 255 0 0
2.14109 -2.80347 0.945207 255 0 0
2.16219 -2.8311 0.954525 255 0 0
2.14483 -2.89012 0.96436 255 0 0
2.17246 -2.92735 0.976783 255 0 0
2.15396 -2.98874 0.987136 255 0 0
2.1822 -3.02793 1.00008 255 0 0
2.14636 -3.0676 1.00318 255 0 0
2.17515 -3.10875 1.01664 255 0 0
2.1641 -3.18676 1.03217 255 0 0
2.18255 -3.21393 1.04097 255 0 0
2.16722 -3.28926 1.05546 255 0 0
2.1906 -3.32475 1.06685 255 0 0
2.17102 -3.39734 1.08031 255 0 0
2.19286 -3.43152 1.09118 255 0 0
3.01726 -2.45031 -1.04149 255 255 255
3.21221 -2.60863 -1.10878 255 255 255
3.36276 -2.80871 -1.174 255 255 255
3.4191 -2.85577 -1.19367 255 255 255
2.06921 -1.6804 0.0465281 255 0 0
2.07542 -1.68545 0.0466677 255 0 0
2.07194 -1.73057 0.0471215 255 0 0
2.08882 -1.74467 0.0475054 255 0 0
2.08397 -1.7906 0.0479592 255 0 0
2.09004 -1.79582 0.0480988 255 0 0
2.07525 -1.83409 0.0483432 255 0 0
2.08724 -1.84469 0.0486224 255 0 0
2.07345 -1.88405 0.0489016 255 0 0
2.09713 -1.90556 0.0494601 255 0 0
2.082 -1.94558 0.0497394 255 0 0
2.08639 -1.94968 0.0498441 255 0 0
2.08094 -1.99904 0.0503676 255 0 0
2.10113 -2.01843 0.0508563 255 0 0
2.08448 -2.05845 0.0511356 255 0 0
2.09871 -2.0725 0.0514846 255 0 0
2.08079 -2.113 0.0517638 255 0 0
2.10044 -2.13295 0.0522525 255 0 0
2.08982 -2.18229 0.0527412 255 0 0
2.10918 -2.20251 0.0532298 255 0 0
2.09497 -2.24894 0.0536487 255 0 0
2.10042 -2.25479 0.0537883 255 0 0
2.09249 -2.31094 0.0544166 255 0 0
2.11397 -2.33466 0.0549751 255 0 0
2.06035 -1.67321 -0.612767 255 0 0
2.07397 -1.68427 -0.616816 255 0 0
2.07298 -1.73144 -0.623564 255 0 0
2.08645 -1.74268 -0.627613 255 0 0
2.07669 -1.78435 -0.632112 255 0 0
2.1033 -1.80721 -0.640211 255 0 0
2.08516 -1.84285 -0.64246 255 0 0
2.09392 -1.85059 -0.64516 255 0 0
2.08696 -1.89632 -0.651008 255 0 0
2.08219 -1.69095 0.140574 255 0 0
2.09925 -1.7048 0.141726 255 0 0
2.08014 -1.73742 0.14204 255 0 0
2.09547 -1.75022 0.143087 255 0 0
2.08749 -1.79363 0.144238 255 0 0
2.10567 -1.80925 0.145494 255 0 0
2.10415 -1.85963 0.147169 255 0 0
2.10864 -1.8636 0.147483 255 0 0
2.08718 -1.89653 0.147797 255 0 0
2.1064 -1.91399 0.149157 255 0 0
2.09406 -1.95685 0.150204 255 0 0
2.11157 -1.97321 0.15146 255 0 0
2.09857 -2.01597 0.152507 255 0 0
2.10433 -2.02151 0.152926 255 0 0
2.08905 -2.06296 0.153868 255 0 0
2.11036 -2.08401 0.155438 255 0 0
2.10068 -2.1332 0.156903 255 0 0
2.1161 -2.14885 0.158055 255 0 0
2.09556 -2.18828 0.158787 255 0 0
2.1149 -2.20848 0.160253 255 0 0
2.10058 -2.25496 0.161509 255 0 0
2.11692 -2.2725 0.162765 255 0 0
2.10201 -2.32145 0.164126 255 0 0
2.11541 -2.33625 0.165172 255 0 0
2.08027 -1.68939 -0.520909 255 0 0
2.09856 -1.70424 -0.525488 255 0 0
2.09294 -1.74811 -0.530067 255 0 0
0.610456 -0.602833 -0.166767 255 255 255
0.60198 -0.611298 -0.166767 255 255 255
2.07712 -1.68682 0.2341 255 0 0
2.09258 -1.69938 0.235843 255 0 0
2.0766 -1.73446 0.236715 255 0 0
2.09342 -1.74851 0.238632 255 0 0
2.08543 -1.79185 0.24055 255 0 0
2.08694 -1.79315 0.240724 255 0 0
2.07215 -1.83135 0.241944 255 0 0
2.08857 -1.84586 0.243862 255 0 0
2.08651 -1.89592 0.246651 255 0 0
2.09684 -1.9053 0.247871 255 0 0
2.08168 -1.94527 0.249265 255 0 0
2.09332 -1.95616 0.25066 255 0 0
2.08627 -2.00416 0.2531 255 0 0
2.10926 -2.02624 0.255889 255 0 0
2.08963 -2.06353 0.256935 255 0 0
2.09813 -2.07193 0.257981 255 0 0
2.08577 -2.11806 0.260073 255 0 0
2.10255 -2.13509 0.262164 255 0 0
2.09045 -2.18295 0.264431 255 0 0
2.11112 -2.20453 0.267045 255 0 0
2.08867 -2.24218 0.268091 255 0 0
2.11447 -2.26988 0.271403 255 0 0
2.1009 -2.32022 0.273843 255 0 0
2.11962 -2.34089 0.276284 255 0 0
2.08085 -1.68985 -0.424563 255 0 0
2.08392 -1.69235 -0.425189 255 0 0
2.07251 -1.73105 -0.427692 255 0 0
2.08767 -1.74371 -0.430821 255 0 0
2.07511 -1.78299 -0.433323 255 0 0
2.09009 -1.79586 -0.436452 255 0 0
2.07222 -1.83141 -0.438017 255 0 0
2.09146 -1.84842 -0.442084 255 0 0
2.08332 -1.89302 -0.445838 255 0 0
2.10232 -1.91029 -0.449906 255 0 0
2.08699 -1.95024 -0.452408 255 0 0
2.09854 -1.96103 -0.454911 255 0 0
2.0884 -2.0062 -0.458666 255 0 0
2.10264 -2.01989 -0.461795 255 0 0
2.09708 -2.07089 -0.4668 255 0 0
2.11676 -2.09033 -0.471181 255 0 0
2.09291 -2.12531 -0.472432 255 0 0
2.11509 -2.14783 -0.477438 255 0 0
2.09582 -2.18856 -0.479941 255 0 0
2.11905 -2.21282 -0.48526 255 0 0
2.1045 -2.25917 -0.489014 255 0 0
2.11258 -2.26784 -0.490891 255 0 0
2.09356 -2.31212 -0.49402 255 0 0
2.11743 -2.33848 -0.499652 255 0 0
2.08954 -1.69691 0.33051 255 0 0
2.09571 -1.70192 0.331485 255 0 0
2.07814 -1.73574 0.33246 255 0 0
2.10404 -1.75738 0.336603 255 0 0
2.09134 -1.79693 0.338553 255 0 0
2.1064 -1.80987 0.34099 255 0 0
2.09282 -1.84962 0.34294 255 0 0
2.09877 -1.85488 0.343915 255 0 0
2.08769 -1.89699 0.346353 255 0 0
2.10826 -1.91568 0.349765 255 0 0
2.09871 -1.96119 0.35269 255 0 0
2.11031 -1.97203 0.35464 255 0 0
2.08865 -2.00644 0.355615 255 0 0
2.11298 -2.02982 0.359758 255 0 0
2.10033 -2.0741 0.362439 255 0 0
2.12011 -2.09363 0.365852 255 0 0
2.09903 -2.13152 0.367314 255 0 0
2.11435 -2.14707 0.369995 255 0 0
2.10064 -2.19359 0.37292 255 0 0
2.12123 -2.2151 0.376576 255 0 0
2.11214 -2.26737 0.380476 255 0 0
2.12567 -2.2819 0.382913 255 0 0
2.1012 -2.32055 0.384376 255 0 0
2.12385 -2.34556 0.388519 255 0 0
2.08954 -1.69691 -0.33051 255 0 0
2.10341 -1.70818 -0.332703 255 0 0
2.08118 -1.73829 -0.332947 255 0 0
2.09032 -1.74592 -0.334409 255 0 0
2.08532 -1.79176 -0.337578 255 0 0
2.10037 -1.80469 -0.340015 255 0 0
2.09431 -1.85093 -0.343184 255 0 0
2.10472 -1.86014 -0.34489 255 0 0
2.08328 -1.89298 -0.345621 255 0 0
2.10532 -1.91301 -0.349278 255 0 0
2.09581 -1.95848 -0.352202 255 0 0
2.11466 -1.9761 -0.355371 255 0 0
2.10153 -2.01882 -0.357808 255 0 0
2.10726 -2.02432 -0.358783 255 0 0
2.09045 -2.06434 -0.360733 255 0 0
2.11305 -2.08666 -0.364633 255 0 0
2.09763 -2.1301 -0.36707 255 0 0
2.11713 -2.1499 -0.370483 255 0 0
2.09515 -2.18786 -0.371945 255 0 0
2.11712 -2.2108 -0.375845 255 0 0
2.10808 -2.26302 -0.379745 255 0 0
2.12432 -2.28045 -0.38267 255 0 0
2.09853 -2.31761 -0.383888 255 0 0
2.11585 -2.33674 -0.387057 255 0 0
2.07012 -1.68114 0.422373 255 0 0
2.08698 -1.69484 0.425815 255 0 0
2.08161 -1.73864 0.429569 255 0 0
2.09222 -1.74751 0.431759 255 0 0
2.0811 -1.78814 0.434575 255 0 0
2.0871 -1.79329 0.435826 255 0 0
2.07962 -1.83795 0.439581 255 0 0
2.09146 -1.84842 0.442084 255 0 0
2.08332 -1.89302 0.445838 255 0 0
2.08917 -1.89833 0.44709 255 0 0
2.07978 -1.9435 0.450844 255 0 0
2.09132 -1.95429 0.453347 255 0 0
2.08697 -2.00483 0.458353 255 0 0
2.09694 -2.01441 0.460543 255 0 0
2.08162 -2.05563 0.463359 255 0 0
2.09989 -2.07367 0.467426 255 0 0
2.09014 -2.12249 0.471806 255 0 0
2.10954 -2.1422 0.476187 255 0 0
2.09036 -2.18285 0.478689 255 0 0
2.10539 -2.19855 0.482131 255 0 0
2.08969 -2.24327 0.485573 255 0 0
2.10719 -2.26206 0.48964 255 0 0
2.09754 -2.31651 0.494959 255 0 0
2.11213 -2.33262 0.4984 255 0 0
2.0833 -1.69185 -0.234798 255 0 0
2.09568 -1.7019 -0.236192 255 0 0
2.08578 -1.74212 -0.237761 255 0 0
2.10871 -1.76128 -0.240376 255 0 0
2.09903 -1.80354 -0.242119 255 0 0
2.10356 -1.80743 -0.242642 255 0 0
2.09305 -1.84982 -0.244385 255 0 0
2.11694 -1.87093 -0.247174 255 0 0
2.10274 -1.91066 -0.248568 255 0 0
2.11158 -1.9187 -0.249614 255 0 0
2.09041 -1.95344 -0.250311 255 0 0
2.10788 -1.96976 -0.252403 255 0 0
2.09776 -2.0152 -0.254495 255 0 0
2.12219 -2.03866 -0.257458 255 0 0
2.10664 -2.08033 -0.259027 255 0 0
2.11089 -2.08453 -0.25955 255 0 0
2.09696 -2.12941 -0.261467 255 0 0
2.11793 -2.15071 -0.264082 255 0 0
2.11387 -2.20741 -0.267394 255 0 0
2.12214 -2.21604 -0.26844 255 0 0
2.10632 -2.26113 -0.270357 255 0 0
2.12126 -2.27717 -0.272275 255 0 0
2.11427 -2.33499 -0.275586 255 0 0
2.13165 -2.35419 -0.277853 255 0 0
2.0818 -1.69062 0.52129 255 0 0
2.08942 -1.69681 0.523198 255 0 0
2.07788 -1.73553 0.526251 255 0 0
2.09294 -1.74811 0.530067 255 0 0
2.08025 -1.7874 0.53312 255 0 0
2.09811 -1.80275 0.5377 255 0 0
2.08304 -1.84097 0.540371 255 0 0
2.09039 -1.84747 0.542279 255 0 0
2.08797 -1.89724 0.548385 255 0 0
2.10686 -1.91441 0.553346 255 0 0
2.0957 -1.95838 0.557544 255 0 0
2.10144 -1.96374 0.55907 255 0 0
2.08832 -2.00613 0.562887 255 0 0
2.10956 -2.02653 0.568611 255 0 0
2.10098 -2.07474 0.573953 255 0 0
2.12193 -2.09543 0.579678 255 0 0
2.0966 -2.12905 0.580823 255 0 0
2.11451 -2.14724 0.585784 255 0 0
2.10605 -2.19924 0.59189 255 0 0
2.12777 -2.22192 0.597995 255 0 0
2.10496 -2.25967 0.600285 255 0 0
2.11567 -2.27116 0.603338 255 0 0
2.09916 -2.31831 0.607917 255 0 0
2.12288 -2.3445 0.614787 255 0 0
2.0946 -1.70102 -0.141412 255 0 0
2.0977 -1.70354 -0.141621 255 0 0
2.08627 -1.74254 -0.142458 255 0 0
2.1016 -1.75534 -0.143505 255 0 0
2.0981 -1.80274 -0.144971 255 0 0
2.11173 -1.81445 -0.145913 255 0 0
2.10265 -1.85831 -0.147064 255 0 0
2.10714 -1.86228 -0.147378 255 0 0
2.08866 -1.89787 -0.147901 255 0 0
2.10344 -1.9113 -0.148948 255 0 0
2.0999 -1.9623 -0.150623 255 0 0
2.10573 -1.96776 -0.151042 255 0 0
2.09857 -2.01597 -0.152507 255 0 0
2.12017 -2.03673 -0.154077 255 0 0
2.1061 -2.0798 -0.155124 255 0 0
2.126 -2.09945 -0.156589 255 0 0
2.11049 -2.14316 -0.157636 255 0 0
2.1217 -2.15454 -0.158473 255 0 0
2.09694 -2.18973 -0.158892 255 0 0
2.11904 -2.21281 -0.160567 255 0 0
2.11011 -2.26519 -0.162241 255 0 0
2.11964 -2.27542 -0.162974 255 0 0
2.10067 -2.31997 -0.164021 255 0 0
2.13552 -2.35846 -0.166742 255 0 0
2.07094 -1.68181 0.615916 255 0 0
2.09666 -1.70269 0.623564 255 0 0
2.07598 -1.73394 0.624464 255 0 0
2.08794 -1.74393 0.628063 255 0 0
2.07078 -1.77927 0.630313 255 0 0
2.09886 -1.8034 0.638861 255 0 0
2.091 -1.84801 0.64426 255 0 0
2.1056 -1.86092 0.648759 255 0 0
2.07974 -1.88977 0.648759 255 0 0
2.09128 -1.90025 0.652358 255 0 0
2.08163 -1.94523 0.657757 255 0 0
2.11011 -1.97184 0.666755 255 0 0
2.09115 -2.00885 0.669454 255 0 0
2.09959 -2.01695 0.672154 255 0 0
2.09376 -2.06762 0.679352 255 0 0
2.11595 -2.08952 0.686551 255 0 0
2.10161 -2.13414 0.6915 255 0 0
2.11528 -2.14802 0.695999 255 0 0
2.09587 -2.18861 0.699598 255 0 0
2.11204 -2.2055 0.704997 255 0 0
2.10534 -2.26007 0.713095 255 0 0
2.12925 -2.28574 0.721193 255 0 0
2.11242 -2.33295 0.726592 255 0 0
2.12289 -2.3445 0.730191 255 0 0
2.07697 -1.68671 -0.0467026 255 0 0
2.09405 -1.70057 -0.0470866 255 0 0
2.09496 -1.74979 -0.0476451 255 0 0
2.11031 -1.76261 -0.0479941 255 0 0
2.08246 -1.7893 -0.0479243 255 0 0
2.09762 -1.80233 -0.0482734 255 0 0
2.08724 -1.84469 -0.0486224 255 0 0
2.10522 -1.86058 -0.0490413 255 0 0
2.08529 -1.89481 -0.0491809 255 0 0
2.09565 -1.90422 -0.0494252 255 0 0
2.08639 -1.94968 -0.0498441 255 0 0
2.11269 -1.97425 -0.0504724 255 0 0
2.10257 -2.01982 -0.0508912 255 0 0
2.11411 -2.0309 -0.0511705 255 0 0
2.10013 -2.07391 -0.0515195 255 0 0
2.11009 -2.08374 -0.0517638 255 0 0
2.09903 -2.13152 -0.0522176 255 0 0
2.11447 -2.1472 -0.0526016 255 0 0
2.10088 -2.19384 -0.0530204 255 0 0
2.11609 -2.20973 -0.0534044 255 0 0
2.10042 -2.25479 -0.0537883 255 0 0
2.1195 -2.27527 -0.054277 255 0 0
2.10592 -2.32576 -0.0547657 255 0 0
2.12471 -2.34651 -0.0552543 255 0 0
2.08449 -1.69281 0.719517 255 0 0
2.09499 -1.70133 0.72314 255 0 0
2.08616 -1.74244 0.728317 255 0 0
2.09802 -1.75235 0.732458 255 0 0
2.08214 -1.78903 0.735564 255 0 0
2.09239 -1.79784 0.739187 255 0 0
2.08446 -1.84223 0.745399 255 0 0
2.10762 -1.8627 0.753681 255 0 0
2.09889 -1.90717 0.759893 255 0 0
2.11462 -1.92146 0.765587 255 0 0
2.09465 -1.95739 0.768175 255 0 0
2.10735 -1.96926 0.772834 255 0 0
2.0995 -2.01687 0.780081 255 0 0
2.12179 -2.03828 0.788363 255 0 0
2.10448 -2.0782 0.792504 255 0 0
2.10723 -2.08092 0.793539 255 0 0
2.09966 -2.13216 0.801821 255 0 0
2.1227 -2.15556 0.810621 255 0 0
2.11378 -2.20731 0.818903 255 0 0
2.12981 -2.22406 0.825115 255 0 0
2.09631 -2.25038 0.82408 255 0 0
2.12265 -2.27865 0.834433 255 0 0
2.10838 -2.32848 0.84168 255 0 0
2.13172 -2.35426 0.850997 255 0 0
2.06267 -1.16795 -0.635142 255 0 0
2.07275 -1.17366 -0.638248 255 0 0
2.07139 -1.2109 -0.642906 255 0 0
2.66678 -1.55897 -0.827703 255 255 255
2.1684 -1.30858 -0.678624 255 0 0
2.99044 -1.80466 -0.93589 255 255 255
2.99775 -1.86666 -0.946242 255 255 255
3.00759 -1.87279 -0.949348 255 255 255
2.9779 -1.91251 -0.948313 255 255 255
3.00066 -1.92713 -0.95556 255 255 255
2.97346 -1.96884 -0.95556 255 255 255
3.0089 -1.9923 -0.966948 255 255 255
2.9971 -2.04448 -0.972124 255 255 255
3.01306 -2.05537 -0.977301 255 255 255
3.00303 -2.11057 -0.983512 255 255 255
3.022 -2.1239 -0.989724 255 255 255
3.00808 -2.17669 -0.9949 255 255 255
3.03938 -2.19934 -1.00525 255 255 255
3.00102 -2.23526 -1.00266 255 255 255
3.02116 -2.25027 -1.00939 255 255 255
2.99518 -2.29745 -1.01146 255 255 255
3.01051 -2.30921 -1.01664 255 255 255
3.00224 -2.37017 -1.02492 255 255 255
3.03863 -2.3989 -1.03735 255 255 255
2.05332 -1.16266 0.0411877 255 0 0
2.06028 -1.1666 0.0413273 255 0 0
2.05091 -1.19893 0.0414669 255 0 0
2.06817 -1.20903 0.041816 255 0 0
2.05794 -1.24192 0.0419556 255 0 0
2.05622 -1.24088 0.0419207 255 0 0
2.04888 -1.27581 0.0421301 255 0 0
2.06586 -1.28638 0.0424792 255 0 0
2.05947 -1.32267 0.0427235 255 0 0
2.06957 -1.32915 0.0429329 255 0 0
2.05748 -1.36233 0.0430725 255 0 0
2.06582 -1.36785 0.0432471 255 0 0
2.05832 -1.40409 0.0434914 255 0 0
2.07815 -1.41762 0.0439103 255 0 0
2.06797 -1.45339 0.0441197 255 0 0
2.07124 -1.45569 0.0441895 255 0 0
2.06717 -1.49583 0.0445385 255 0 0
2.07689 -1.50287 0.044748 255 0 0
2.07201 -1.54331 0.045097 255 0 0
2.07843 -1.54808 0.0452366 255 0 0
2.06109 -1.58096 0.0453414 255 0 0
2.07379 -1.5907 0.0456206 255 0 0
2.06707 -1.63189 0.0459696 255 0 0
2.08591 -1.64676 0.0463885 255 0 0
2.0417 -1.15608 -0.541682 255 0 0
2.03491 -1.15224 -0.539883 255 0 0
2.0222 -1.18215 -0.540782 255 0 0
2.03734 -1.191 -0.544831 255 0 0
2.07557 -1.25256 -0.559678 255 0 0
2.08058 -1.25558 -0.561028 255 0 0
2.06781 -1.2876 -0.562378 255 0 0
2.07112 -1.28966 -0.563277 255 0 0
2.07258 -1.33109 -0.568676 255 0 0
2.08898 -1.34162 -0.573175 255 0 0
2.07004 -1.37065 -0.573175 255 0 0
2.07329 -1.3728 -0.574075 255 0 0
2.05739 -1.40346 -0.574975 255 0 0
2.07349 -1.41444 -0.579474 255 0 0
2.06948 -1.45446 -0.583973 255 0 0
2.08064 -1.4623 -0.587122 255 0 0
2.06975 -1.4977 -0.589822 255 0 0
2.0887 -1.51141 -0.595221 255 0 0
2.08017 -1.54938 -0.59882 255 0 0
2.09423 -1.55985 -0.602869 255 0 0
2.09053 -1.60354 -0.608268 255 0 0
2.09207 -1.60472 -0.608718 255 0 0
2.07864 -1.64102 -0.611417 255 0 0
2.07099 -1.63498 -0.609167 255 0 0
2.07515 -1.17502 0.124978 255 0 0
2.07168 -1.17305 0.124769 255 0 0
2.05875 -1.20352 0.124978 255 0 0
2.07082 -1.21058 0.125711 255 0 0
2.07424 -1.25175 0.126967 255 0 0
2.07937 -1.25485 0.127281 255 0 0
2.07521 -1.29221 0.128118 255 0 0
2.08199 -1.29643 0.128537 255 0 0
2.07209 -1.33077 0.12906 255 0 0
2.08217 -1.33724 0.129689 255 0 0
2.07662 -1.37501 0.130526 255 0 0
2.08994 -1.38383 0.131363 255 0 0
2.07067 -1.41251 0.131363 255 0 0
2.08386 -1.42152 0.132201 255 0 0
2.07362 -1.45736 0.132829 255 0 0
2.09159 -1.47 0.13398 255 0 0
2.08407 -1.50806 0.134817 255 0 0
2.08569 -1.50923 0.134922 255 0 0
2.0823 -1.55097 0.136073 255 0 0
2.09031 -1.55693 0.136597 255 0 0
2.0776 -1.59362 0.137225 255 0 0
2.0982 -1.60942 0.138586 255 0 0
2.07866 -1.64104 0.138795 255 0 0
2.08963 -1.6497 0.139528 255 0 0
2.0774 -1.1763 -0.464047 255 0 0
2.09107 -1.18404 -0.4671 255 0 0
2.07963 -1.21573 -0.468245 255 0 0
2.07963 -1.21573 -0.468245 255 0 0
2.07758 -1.25377 -0.47168 255 0 0
2.08935 -1.26087 -0.474351 255 0 0
2.08154 -1.29615 -0.476641 255 0 0
2.09154 -1.30238 -0.478931 255 0 0
2.0748 -1.33251 -0.479312 255 0 0
2.08306 -1.33782 -0.48122 255 0 0
2.08055 -1.37761 -0.485036 255 0 0
2.09692 -1.38845 -0.488853 255 0 0
2.08244 -1.42055 -0.489998 255 0 0
2.08893 -1.42497 -0.491524 255 0 0
2.08008 -1.4619 -0.494195 255 0 0
2.09453 -1.47206 -0.49763 255 0 0
2.08676 -1.51001 -0.500683 255 0 0
2.09312 -1.51461 -0.502209 255 0 0
2.07834 -1.54802 -0.503736 255 0 0
2.09251 -1.55857 -0.50717 255 0 0
2.08584 -1.59995 -0.510987 255 0 0
2.10142 -1.6119 -0.514803 255 0 0
2.09874 -1.65689 -0.519764 255 0 0
2.09104 -1.65081 -0.517856 255 0 0
2.06489 -1.16921 0.207605 255 0 0
2.08223 -1.17903 0.209348 255 0 0
2.07953 -1.21567 0.210743 255 0 0
2.08125 -1.21667 0.210917 255 0 0
2.06918 -1.2487 0.21144 255 0 0
2.08283 -1.25694 0.212834 255 0 0
2.07522 -1.29222 0.21388 255 0 0
2.08199 -1.29643 0.214577 255 0 0
2.07374 -1.33183 0.215623 255 0 0
2.07374 -1.33183 0.215623 255 0 0
2.06325 -1.36615 0.216495 255 0 0
2.08319 -1.37935 0.218587 255 0 0
2.07549 -1.4158 0.219807 255 0 0
2.08043 -1.41917 0.22033 255 0 0
2.06367 -1.45037 0.220678 255 0 0
2.08323 -1.46412 0.22277 255 0 0
2.07576 -1.50205 0.224165 255 0 0
2.09029 -1.51256 0.225733 255 0 0
2.07882 -1.54838 0.226779 255 0 0
2.08202 -1.55076 0.227128 255 0 0
2.07095 -1.58852 0.228348 255 0 0
2.08992 -1.60308 0.23044 255 0 0
2.07985 -1.64198 0.231834 255 0 0
2.09705 -1.65556 0.233752 255 0 0
2.04726 -1.15923 -0.372627 255 0 0
2.05757 -1.16507 -0.374504 255 0 0
2.05496 -1.2013 -0.377007 255 0 0
2.0686 -1.20928 -0.37951 255 0 0
2.0549 -1.24008 -0.380136 255 0 0
2.0549 -1.24008 -0.380136 255 0 0
2.04744 -1.27492 -0.382013 255 0 0
2.06421 -1.28536 -0.385142 255 0 0
2.06268 -1.32473 -0.38827 255 0 0
2.07931 -1.3354 -0.391399 255 0 0
2.05387 -1.35994 -0.390148 255 0 0
2.06869 -1.36976 -0.392963 255 0 0
2.0643 -1.40817 -0.395779 255 0 0
2.07572 -1.41596 -0.397969 255 0 0
2.06383 -1.45048 -0.399534 255 0 0
2.06706 -1.45275 -0.400159 255 0 0
2.06284 -1.4927 -0.403288 255 0 0
2.07724 -1.50312 -0.406104 255 0 0
2.07058 -1.54224 -0.40892 255 0 0
2.08008 -1.54932 -0.410797 255 0 0
2.06111 -1.58097 -0.411423 255 0 0
2.07992 -1.5954 -0.415177 255 0 0
2.07759 -1.6402 -0.419244 255 0 0
2.0931 -1.65244 -0.422373 255 0 0
2.06769 -1.1708 0.291755 255 0 0
2.06942 -1.17177 0.291999 255 0 0
2.06164 -1.20521 0.293218 255 0 0
2.07706 -1.21422 0.295411 255 0 0
2.0752 -1.25233 0.297605 255 0 0
2.082 -1.25644 0.29858 255 0 0
2.07099 -1.28958 0.299555 255 0 0
2.07268 -1.29063 0.299799 255 0 0
2.07116 -1.33017 0.302236 255 0 0
2.08285 -1.33768 0.303942 255 0 0
2.07059 -1.37101 0.304917 255 0 0
2.08052 -1.37759 0.30638 255 0 0
2.06953 -1.41174 0.307598 255 0 0
2.08593 -1.42292 0.310036 255 0 0
2.08048 -1.46218 0.312229 255 0 0
2.09184 -1.47017 0.313935 255 0 0
2.07942 -1.50469 0.315154 255 0 0
2.09711 -1.51749 0.317835 255 0 0
2.08713 -1.55456 0.319541 255 0 0
2.10464 -1.56761 0.322223 255 0 0
2.09015 -1.60325 0.323441 255 0 0
2.08857 -1.60204 0.323197 255 0 0
2.08625 -1.64703 0.326366 255 0 0
2.09872 -1.65687 0.328316 255 0 0
2.0746 -1.17471 -0.29273 255 0 0
2.08151 -1.17862 -0.293705 255 0 0
2.06849 -1.20921 -0.294193 255 0 0
2.08049 -1.21623 -0.295899 255 0 0
2.0718 -1.25028 -0.297117 255 0 0
2.0888 -1.26054 -0.299555 255 0 0
2.07773 -1.29378 -0.30053 255 0 0
2.07099 -1.28958 -0.299555 255 0 0
2.0745 -1.33232 -0.302723 255 0 0
2.0912 -1.34304 -0.305161 255 0 0
2.08052 -1.37759 -0.30638 255 0 0
2.07556 -1.3743 -0.305648 255 0 0
2.07117 -1.41286 -0.307842 255 0 0
2.08593 -1.42292 -0.310036 255 0 0
2.08372 -1.46447 -0.312717 255 0 0
2.09347 -1.47131 -0.314179 255 0 0
2.07781 -1.50353 -0.31491 255 0 0
2.08585 -1.50935 -0.316129 255 0 0
2.07439 -1.54508 -0.317592 255 0 0
2.0935 -1.55931 -0.320516 255 0 0
2.08542 -1.59962 -0.32271 255 0 0
2.09487 -1.60687 -0.324172 255 0 0
2.08002 -1.64211 -0.325391 255 0 0
2.0956 -1.65441 -0.327829 255 0 0
2.04898 -1.1602 0.37294 255 0 0
2.06273 -1.16799 0.375443 255 0 0
2.05155 -1.19931 0.376381 255 0 0
2.05325 -1.2003 0.376694 255 0 0
2.04644 -1.23498 0.378571 255 0 0
2.06673 -1.24723 0.382326 255 0 0
2.05918 -1.28223 0.384203 255 0 0
2.06086 -1.28327 0.384516 255 0 0
2.0444 -1.31299 0.384829 255 0 0
2.0577 -1.32153 0.387332 255 0 0
2.05716 -1.36212 0.390773 255 0 0
2.07034 -1.37085 0.393276 255 0 0
2.0643 -1.40817 0.395779 255 0 0
2.0643 -1.40817 0.395779 255 0 0
2.0606 -1.44821 0.398908 255 0 0
2.07514 -1.45843 0.401724 255 0 0
2.06924 -1.49733 0.40454 255 0 0
2.07404 -1.5008 0.405478 255 0 0
2.05949 -1.53398 0.40673 255 0 0
2.07691 -1.54696 0.410171 255 0 0
2.06267 -1.58217 0.411736 255 0 0
2.08618 -1.60021 0.416429 255 0 0
2.06674 -1.63163 0.417054 255 0 0
2.07759 -1.6402 0.419244 255 0 0
2.07529 -1.1751 -0.208651 255 0 0
2.07703 -1.17608 -0.208825 255 0 0
2.06749 -1.20863 -0.209522 255 0 0
2.07781 -1.21466 -0.210568 255 0 0
2.06065 -1.24356 -0.210568 255 0 0
2.07942 -1.25488 -0.212486 255 0 0
2.07015 -1.28906 -0.213357 255 0 0
2.08368 -1.29748 -0.214752 255 0 0
2.07542 -1.33291 -0.215798 255 0 0
2.08213 -1.33721 -0.216495 255 0 0
2.0699 -1.37055 -0.217192 255 0 0
2.08983 -1.38375 -0.219284 255 0 0
2.08043 -1.41917 -0.22033 255 0 0
2.09195 -1.42703 -0.22155 255 0 0
2.07182 -1.4561 -0.22155 255 0 0
2.08812 -1.46756 -0.223293 255 0 0
2.08706 -1.51022 -0.225385 255 0 0
2.10159 -1.52074 -0.226954 255 0 0
2.08681 -1.55433 -0.227651 255 0 0
2.09001 -1.55671 -0.227999 255 0 0
2.0836 -1.59823 -0.229743 255 0 0
2.09783 -1.60914 -0.231311 255 0 0
2.09549 -1.65432 -0.233577 255 0 0
2.10174 -1.65926 -0.234275 255 0 0
2.05178 -1.16179 0.458323 255 0 0
2.06715 -1.17049 0.461758 255 0 0
2.06438 -1.20681 0.464811 255 0 0
2.07455 -1.21275 0.4671 255 0 0
2.06582 -1.24667 0.469009 255 0 0
2.0675 -1.24769 0.46939 255 0 0
2.05321 -1.27851 0.470153 255 0 0
2.06821 -1.28785 0.473588 255 0 0
2.0715 -1.33039 0.478549 255 0 0
2.08141 -1.33676 0.480839 255 0 0
2.056 -1.36135 0.479312 255 0 0
2.07237 -1.37219 0.483128 255 0 0
2.0646 -1.40838 0.4858 255 0 0
2.08569 -1.42276 0.490761 255 0 0
2.07847 -1.46077 0.493814 255 0 0
2.08329 -1.46416 0.494959 255 0 0
2.06926 -1.49735 0.496485 255 0 0
2.08835 -1.51116 0.501064 255 0 0
2.08306 -1.55154 0.504881 255 0 0
2.10038 -1.56444 0.509078 255 0 0
2.07494 -1.59158 0.508315 255 0 0
2.08117 -1.59636 0.509842 255 0 0
2.07717 -1.63986 0.514421 255 0 0
2.0972 -1.65568 0.519382 255 0 0
2.07341 -1.17404 -0.124874 255 0 0
2.07689 -1.176 -0.125083 255 0 0
2.07082 -1.21058 -0.125711 255 0 0
2.08117 -1.21662 -0.126339 255 0 0
2.07937 -1.25485 -0.127281 255 0 0
2.07766 -1.25382 -0.127176 255 0 0
2.07012 -1.28904 -0.127804 255 0 0
2.0803 -1.29537 -0.128432 255 0 0
2.07713 -1.33401 -0.129374 255 0 0
2.09562 -1.34588 -0.130526 255 0 0
2.07496 -1.3739 -0.130421 255 0 0
2.08661 -1.38162 -0.131154 255 0 0
2.08056 -1.41927 -0.131991 255 0 0
2.08716 -1.42377 -0.13241 255 0 0
2.08506 -1.4654 -0.133561 255 0 0
2.09486 -1.47229 -0.134189 255 0 0
2.08407 -1.50806 -0.134817 255 0 0
2.09378 -1.51509 -0.135445 255 0 0
2.09191 -1.55813 -0.136702 255 0 0
2.10473 -1.56767 -0.137539 255 0 0
2.08235 -1.59727 -0.137539 255 0 0
2.09503 -1.60699 -0.138376 255 0 0
2.0865 -1.64723 -0.139318 255 0 0
2.10374 -1.66084 -0.14047 255 0 0
2.06205 -1.1676 0.547081 255 0 0
2.06544 -1.16952 0.547981 255 0 0
2.0508 -1.19887 0.548431 255 0 0
2.06426 -1.20674 0.55203 255 0 0
2.05722 -1.24148 0.554729 255 0 0
2.07057 -1.24954 0.558329 255 0 0
2.0645 -1.28554 0.561478 255 0 0
2.06119 -1.28348 0.560578 255 0 0
2.05619 -1.32056 0.564177 255 0 0
2.07422 -1.33214 0.569126 255 0 0
2.06842 -1.36958 0.572725 255 0 0
2.08142 -1.37818 0.576325 255 0 0
2.05739 -1.40346 0.574975 255 0 0
2.06705 -1.41004 0.577674 255 0 0
2.07108 -1.45558 0.584423 255 0 0
2.09021 -1.46902 0.589822 255 0 0
2.06502 -1.49427 0.588472 255 0 0
2.07765 -1.50341 0.592071 255 0 0
2.07079 -1.54239 0.59612 255 0 0
2.08485 -1.55287 0.600169 255 0 0
2.08125 -1.59642 0.605568 255 0 0
2.08279 -1.59761 0.606018 255 0 0
2.0664 -1.63136 0.607818 255 0 0
2.08017 -1.64223 0.611867 255 0 0
2.0742 -1.17448 -0.0416065 255 0 0
2.0916 -1.18434 -0.0419556 255 0 0
2.07335 -1.21205 -0.0419207 255 0 0
2.08198 -1.2171 -0.0420952 255 0 0
2.07848 -1.25431 -0.0423744 255 0 0
2.0956 -1.26465 -0.0427235 255 0 0
2.08453 -1.29801 -0.0428631 255 0 0
2.09472 -1.30435 -0.0430725 255 0 0
2.07293 -1.33131 -0.0430027 255 0 0
2.08976 -1.34212 -0.0433518 255 0 0
2.07582 -1.37448 -0.0434565 255 0 0
2.09249 -1.38552 -0.0438055 255 0 0
2.08145 -1.41987 -0.0439801 255 0 0
2.08145 -1.41987 -0.0439801 255 0 0
2.07942 -1.46144 -0.044364 255 0 0
2.08596 -1.46604 -0.0445036 255 0 0
2.08823 -1.51107 -0.0449923 255 0 0
2.09795 -1.51811 -0.0452017 255 0 0
2.07201 -1.54331 -0.045097 255 0 0
2.08805 -1.55525 -0.0454461 255 0 0
2.08965 -1.60287 -0.0459696 255 0 0
2.09917 -1.61017 -0.0461791 255 0 0
2.08434 -1.64552 -0.0463536 255 0 0
2.09218 -1.65171 -0.0465281 255 0 0
2.05931 -1.16605 0.634107 255 0 0
2.07107 -1.17271 0.63773 255 0 0
2.06805 -1.20895 0.641871 255 0 0
2.07139 -1.2109 0.642906 255 0 0
2.06255 -1.2447 0.645495 255 0 0
2.07909 -1.25468 0.650671 255 0 0
2.07449 -1.29176 0.654812 255 0 0
2.08596 -1.2989 0.658436 255 0 0
2.07413 -1.33208 0.660506 255 0 0
2.07413 -1.33208 0.660506 255 0 0
2.06499 -1.36731 0.663612 255 0 0
2.07788 -1.37584 0.667753 255 0 0
2.07786 -1.41742 0.673965 255 0 0
2.07946 -1.41851 0.674482 255 0 0
2.07051 -1.45518 0.678106 255 0 0
2.08 -1.46185 0.681212 255 0 0
2.07529 -1.50171 0.686388 255 0 0
2.08781 -1.51077 0.690529 255 0 0
2.07918 -1.54864 0.69467 255 0 0
2.08848 -1.55557 0.697776 255 0 0
2.07394 -1.59082 0.700364 255 0 0
2.09233 -1.60493 0.706576 255 0 0
2.09095 -1.65074 0.713823 255 0 0
2.0955 -1.65433 0.715376 255 0 0
2.04654 -0.742859 -0.583378 255 0 0
2.05744 -0.746814 -0.586484 255 0 0
2.05417 -0.777847 -0.588555 255 0 0
2.04695 -0.775111 -0.586484 255 0 0
2.04491 -0.807161 -0.589072 255 0 0
2.06108 -0.813545 -0.593731 255 0 0
2.06039 -0.846289 -0.596837 255 0 0
2.06397 -0.847757 -0.597872 255 0 0
2.05355 -0.877609 -0.59839 255 0 0
2.06243 -0.881405 -0.600978 255 0 0
2.05891 -0.913675 -0.603566 255 0 0
2.07304 -0.919944 -0.607707 255 0 0
2.05824 -0.947991 -0.607189 255 0 0
2.06175 -0.949607 -0.608225 255 0 0
2.05701 -0.982464 -0.610813 255 0 0
2.06921 -0.988292 -0.614436 255 0 0
2.06924 -1.02358 -0.618578 255 0 0
2.07097 -1.02444 -0.619095 255 0 0
2.05818 -1.05413 -0.619613 255 0 0
2.0685 -1.05942 -0.622719 255 0 0
2.06204 -1.09272 -0.625307 255 0 0
2.07399 -1.09905 -0.62893 255 0 0
2.06183 -1.12976 -0.629966 255 0 0
2.06014 -1.12883 -0.629448 255 0 0
2.04135 -0.740973 0.0379066 255 0 0
2.04323 -0.741656 0.0379415 255 0 0
2.05151 -0.776838 0.0382906 255 0 0
2.05151 -0.776838 0.0382906 255 0 0
2.03302 -0.802469 0.038151 255 0 0
2.0479 -0.808343 0.0384302 255 0 0
2.04581 -0.840301 0.0386047 255 0 0
2.05691 -0.844859 0.0388142 255 0 0
2.04108 -0.872281 0.0387443 255 0 0
2.04108 -0.872281 0.0387443 255 0 0
2.04714 -0.908451 0.0390934 255 0 0
2.05811 -0.913318 0.0393028 255 0 0
2.05242 -0.945311 0.0394424 255 0 0
2.05242 -0.945311 0.0394424 255 0 0
2.04263 -0.975598 0.0395122 255 0 0
2.05346 -0.980769 0.0397217 255 0 0
2.05408 -1.01608 0.0400009 255 0 0
2.06483 -1.0214 0.0402103 255 0 0
2.05037 -1.05013 0.0402103 255 0 0
2.05393 -1.05195 0.0402802 255 0 0
2.04964 -1.08615 0.0404896 255 0 0
2.06025 -1.09177 0.040699 255 0 0
2.06585 -1.13196 0.0411179 255 0 0
2.06585 -1.13196 0.0411179 255 0 0
2.04612 -0.742705 -0.502541 255 0 0
2.04978 -0.744034 -0.50344 255 0 0
2.05391 -0.777746 -0.50704 255 0 0
2.06302 -0.781197 -0.509289 255 0 0
2.05735 -0.812071 -0.510639 255 0 0
2.05372 -0.81064 -0.509739 255 0 0
2.04776 -0.841101 -0.511089 255 0 0
2.05497 -0.844062 -0.512888 255 0 0
2.05358 -0.877623 -0.515588 255 0 0
2.05717 -0.879155 -0.516488 255 0 0
2.04307 -0.906644 -0.516038 255 0 0
2.0591 -0.913758 -0.520087 255 0 0
2.0603 -0.948941 -0.523686 255 0 0
2.06915 -0.953017 -0.525936 255 0 0
2.06092 -0.984334 -0.527285 255 0 0
2.05565 -0.981814 -0.525936 255 0 0
2.05239 -1.01525 -0.528635 255 0 0
2.06287 -1.02043 -0.531334 255 0 0
2.06404 -1.05713 -0.535384 255 0 0
2.07271 -1.06157 -0.537633 255 0 0
2.05424 -1.08858 -0.536733 255 0 0
2.06974 -1.09679 -0.540782 255 0 0
2.06106 -1.12933 -0.542582 255 0 0
2.08157 -1.14057 -0.547981 255 0 0
2.05764 -0.746885 0.11472 255 0 0
2.052 -0.744841 0.114406 255 0 0
2.05275 -0.777306 0.115034 255 0 0
2.06582 -0.782257 0.115767 255 0 0
2.05656 -0.811758 0.115872 255 0 0
2.06027 -0.813224 0.116081 255 0 0
2.04701 -0.840794 0.115976 255 0 0
2.0544 -0.84383 0.116395 255 0 0
2.05513 -0.878282 0.117128 255 0 0
2.07349 -0.886131 0.118175 255 0 0
2.06838 -0.917876 0.118593 255 0 0
2.0629 -0.915445 0.118279 255 0 0
2.06081 -0.949172 0.118907 255 0 0
2.0735 -0.955021 0.11964 255 0 0
2.06357 -0.9856 0.119849 255 0 0
2.07439 -0.990765 0.120477 255 0 0
2.05874 -1.01839 0.120373 255 0 0
2.0659 -1.02193 0.120791 255 0 0
2.06209 -1.05614 0.121419 255 0 0
2.07987 -1.06524 0.122466 255 0 0
2.06656 -1.09511 0.122571 255 0 0
2.06127 -1.09231 0.122257 255 0 0
2.06158 -1.12962 0.123199 255 0 0
2.07909 -1.13921 0.124246 255 0 0
2.07243 -0.752255 -0.428557 255 0 0
2.07058 -0.751586 -0.428175 255 0 0
2.06003 -0.780063 -0.428175 255 0 0
2.06553 -0.782148 -0.42932 255 0 0
2.06719 -0.815957 -0.431992 255 0 0
2.07267 -0.81812 -0.433136 255 0 0
2.06483 -0.848111 -0.4339 255 0 0
2.06846 -0.849603 -0.434663 255 0 0
2.06888 -0.88416 -0.437334 255 0 0
2.07971 -0.888789 -0.439624 255 0 0
2.07444 -0.920564 -0.44115 255 0 0
2.07623 -0.92136 -0.441532 255 0 0
2.06673 -0.951902 -0.442295 255 0 0
2.06852 -0.952723 -0.442677 255 0 0
2.06387 -0.985742 -0.444585 255 0 0
2.08336 -0.995049 -0.448783 255 0 0
2.06768 -1.02281 -0.448401 255 0 0
2.0712 -1.02455 -0.449164 255 0 0
2.07067 -1.06053 -0.452217 255 0 0
2.0829 -1.06679 -0.454889 255 0 0
2.07821 -1.10129 -0.457178 255 0 0
2.08689 -1.10588 -0.459086 255 0 0
2.06952 -1.13397 -0.458705 255 0 0
2.08157 -1.14057 -0.461376 255 0 0
2.04887 -0.743705 0.190697 255 0 0
2.06011 -0.747784 0.191743 255 0 0
2.0496 -0.776117 0.191743 255 0 0
2.04401 -0.774 0.19122 255 0 0
2.04598 -0.807584 0.19244 255 0 0
2.05895 -0.812704 0.19366 255 0 0
2.06414 -0.847828 0.195229 255 0 0
2.06783 -0.849342 0.195577 255 0 0
2.05561 -0.87849 0.195577 255 0 0
2.06844 -0.88397 0.196798 255 0 0
2.06334 -0.915638 0.197495 255 0 0
2.07244 -0.919679 0.198366 255 0 0
2.06121 -0.949358 0.198541 255 0 0
2.06121 -0.949358 0.198541 255 0 0
2.05854 -0.983197 0.199587 255 0 0
2.06753 -0.98749 0.200458 255 0 0
2.06086 -1.01944 0.201155 255 0 0
2.06622 -1.02209 0.201678 255 0 0
2.05175 -1.05084 0.201678 255 0 0
2.06771 -1.05901 0.203247 255 0 0
2.058 -1.09058 0.20377 255 0 0
2.07561 -1.0999 0.205513 255 0 0
2.06179 -1.12973 0.205688 255 0 0
2.06005 -1.12878 0.205513 255 0 0
2.04438 -0.742072 -0.344469 255 0 0
2.04252 -0.741398 -0.344156 255 0 0
2.04134 -0.772987 -0.34572 255 0 0
2.04688 -0.775086 -0.346659 255 0 0
2.0377 -0.804314 -0.346972 255 0 0
2.04137 -0.805765 -0.347597 255 0 0
2.03555 -0.836086 -0.348536 255 0 0
2.05565 -0.844341 -0.351978 255 0 0
2.04714 -0.87487 -0.352603 255 0 0
2.05441 -0.877975 -0.353855 255 0 0
2.03308 -0.902211 -0.35229 255 0 0
2.05294 -0.911024 -0.355732 255 0 0
2.05437 -0.94621 -0.358235 255 0 0
2.05976 -0.948689 -0.359174 255 0 0
2.04096 -0.974801 -0.358235 255 0 0
2.05166 -0.97991 -0.360112 255 0 0
2.04858 -1.01336 -0.361989 255 0 0
2.06274 -1.02037 -0.364492 255 0 0
2.05181 -1.05087 -0.365118 255 0 0
2.05181 -1.05087 -0.365118 255 0 0
2.0509 -1.08681 -0.367621 255 0 0
2.05788 -1.09051 -0.368872 255 0 0
2.05978 -1.12863 -0.372001 255 0 0
2.06671 -1.13243 -0.373253 255 0 0
2.04324 -0.741658 0.266894 255 0 0
2.04883 -0.74369 0.267625 255 0 0
2.05509 -0.778195 0.269819 255 0 0
2.05695 -0.778898 0.270062 255 0 0
2.05141 -0.809728 0.270794 255 0 0
2.04033 -0.805355 0.269331 255 0 0
2.05107 -0.84246 0.272256 255 0 0
2.06025 -0.846232 0.273475 255 0 0
2.05721 -0.879173 0.274693 255 0 0
2.06451 -0.882293 0.275668 255 0 0
2.05034 -0.909869 0.275425 255 0 0
2.06304 -0.915505 0.277131 255 0 0
2.05727 -0.947542 0.278106 255 0 0
2.06808 -0.952525 0.279568 255 0 0
2.06175 -0.984729 0.280543 255 0 0
2.05996 -0.983874 0.280299 255 0 0
2.06043 -1.01922 0.282249 255 0 0
2.07289 -1.02538 0.283956 255 0 0
2.07073 -1.06056 0.285662 255 0 0
2.0725 -1.06147 0.285905 255 0 0
2.05748 -1.0903 0.285905 255 0 0
2.07151 -1.09774 0.287855 255 0 0
2.06469 -1.13132 0.289074 255 0 0
2.0821 -1.14086 0.291511 255 0 0
2.04883 -0.74369 -0.267625 255 0 0
2.05257 -0.745045 -0.268113 255 0 0
2.04952 -0.776086 -0.269088 255 0 0
2.05695 -0.778898 -0.270062 255 0 0
2.05511 -0.811186 -0.271281 255 0 0
2.06803 -0.816287 -0.272987 255 0 0
2.05474 -0.843969 -0.272744 255 0 0
2.06392 -0.84774 -0.273962 255 0 0
2.06269 -0.881513 -0.275425 255 0 0
2.07181 -0.885413 -0.276643 255 0 0
2.05759 -0.91309 -0.2764 255 0 0
2.05759 -0.91309 -0.2764 255 0 0
2.05546 -0.946712 -0.277862 255 0 0
2.06448 -0.950864 -0.279081 255 0 0
2.06175 -0.984729 -0.280543 255 0 0
2.06354 -0.985585 -0.280787 255 0 0
2.05153 -1.01482 -0.281031 255 0 0
2.06221 -1.0201 -0.282493 255 0 0
2.0672 -1.05875 -0.285174 255 0 0
2.0831 -1.0669 -0.287368 255 0 0
2.068 -1.09588 -0.287368 255 0 0
2.06976 -1.09681 -0.287612 255 0 0
2.06295 -1.13037 -0.28883 255 0 0
2.07687 -1.138 -0.29078 255 0 0
2.03881 -0.74005 0.34353 255 0 0
2.04066 -0.740724 0.343843 255 0 0
2.02656 -0.767391 0.343217 255 0 0
2.04134 -0.772987 0.34572 255 0 0
2.03954 -0.80504 0.347285 255 0 0
2.04872 -0.808666 0.348849 255 0 0
2.04286 -0.839088 0.349787 255 0 0
2.03555 -0.836086 0.348536 255 0 0
2.03443 -0.869436 0.350413 255 0 0
2.04169 -0.872541 0.351665 255 0 0
2.04211 -0.906217 0.353855 255 0 0
2.04933 -0.909422 0.355106 255 0 0
2.04002 -0.939599 0.355732 255 0 0
2.03823 -0.938773 0.355419 255 0 0
2.03918 -0.97395 0.357922 255 0 0
2.05701 -0.982464 0.361051 255 0 0
2.04503 -1.01161 0.361364 255 0 0
2.04503 -1.01161 0.361364 255 0 0
2.03774 -1.04366 0.362615 255 0 0
2.05884 -1.05447 0.36637 255 0 0
2.05439 -1.08866 0.368247 255 0 0
2.05439 -1.08866 0.368247 255 0 0
2.04592 -1.12104 0.369498 255 0 0
2.04765 -1.12199 0.369811 255 0 0
2.05636 -0.746424 -0.191394 255 0 0
2.06947 -0.751183 -0.192614 255 0 0
2.05519 -0.778233 -0.192266 255 0 0
2.0496 -0.776117 -0.191743 255 0 0
2.05339 -0.81051 -0.193137 255 0 0
2.06822 -0.816362 -0.194532 255 0 0
2.06414 -0.847828 -0.195229 255 0 0
2.06414 -0.847828 -0.195229 255 0 0
2.05195 -0.876924 -0.195229 255 0 0
2.06477 -0.882404 -0.196449 255 0 0
2.06152 -0.91483 -0.197321 255 0 0
2.07062 -0.91887 -0.198192 255 0 0
2.0594 -0.948525 -0.198366 255 0 0
2.06664 -0.951859 -0.199064 255 0 0
2.05854 -0.983197 -0.199587 255 0 0
2.06933 -0.988349 -0.200633 255 0 0
2.068 -1.02297 -0.201853 255 0 0
2.068 -1.02297 -0.201853 255 0 0
2.06061 -1.05538 -0.20255 255 0 0
2.07125 -1.06083 -0.203596 255 0 0
2.06856 -1.09617 -0.204816 255 0 0
2.08441 -1.10457 -0.206385 255 0 0
2.06704 -1.13261 -0.20621 255 0 0
2.05655 -1.12686 -0.205165 255 0 0
2.03737 -0.739528 0.421306 255 0 0
2.0429 -0.741538 0.422451 255 0 0
2.03799 -0.77172 0.423596 255 0 0
2.05085 -0.776586 0.426267 255 0 0
2.0325 -0.802262 0.424741 255 0 0
2.04893 -0.808749 0.428175 255 0 0
2.03759 -0.836922 0.428175 255 0 0
2.05393 -0.843635 0.43161 255 0 0
2.04361 -0.873358 0.431992 255 0 0
2.04361 -0.873358 0.431992 255 0 0
2.04393 -0.907026 0.434663 255 0 0
2.04752 -0.908619 0.435426 255 0 0
2.0489 -0.943689 0.438479 255 0 0
2.06495 -0.951081 0.441914 255 0 0
2.04261 -0.975588 0.440006 255 0 0
2.05147 -0.979819 0.441914 255 0 0
2.05536 -1.01672 0.44573 255 0 0
2.06064 -1.01933 0.446875 255 0 0
2.06368 -1.05695 0.450691 255 0 0
2.06019 -1.05516 0.449928 255 0 0
2.05219 -1.0875 0.451454 255 0 0
2.06607 -1.09485 0.454507 255 0 0
2.0678 -1.13303 0.458323 255 0 0
2.07124 -1.13491 0.459086 255 0 0
2.05388 -0.745522 -0.114511 255 0 0
2.05764 -0.746885 -0.11472 255 0 0
2.05648 -0.778721 -0.115244 255 0 0
2.07329 -0.785086 -0.116186 255 0 0
2.06213 -0.813958 -0.116186 255 0 0
2.05841 -0.812491 -0.115976 255 0 0
2.06179 -0.846865 -0.116814 255 0 0
2.07103 -0.850659 -0.117337 255 0 0
2.06615 -0.882991 -0.117756 255 0 0
2.07166 -0.885346 -0.11807 255 0 0
2.05743 -0.913015 -0.117965 255 0 0
2.06473 -0.916256 -0.118384 255 0 0
2.06081 -0.949172 -0.118907 255 0 0
2.08076 -0.958363 -0.120059 255 0 0
2.06898 -0.988182 -0.120163 255 0 0
2.06357 -0.9856 -0.119849 255 0 0
2.06769 -1.02281 -0.120896 255 0 0
2.07664 -1.02724 -0.121419 255 0 0
2.07632 -1.06342 -0.122257 255 0 0
2.07987 -1.06524 -0.122466 255 0 0
2.0648 -1.09418 -0.122466 255 0 0
2.07538 -1.09979 -0.123094 255 0 0
2.07209 -1.13538 -0.123827 255 0 0
2.0861 -1.14305 -0.124664 255 0 0
2.04062 -0.74071 0.501191 255 0 0
2.03696 -0.73938 0.500291 255 0 0
2.03751 -0.771535 0.502991 255 0 0
2.04662 -0.774986 0.50524 255 0 0
2.0501 -0.809209 0.508839 255 0 0
2.05191 -0.809925 0.509289 255 0 0
2.03154 -0.834437 0.50704 255 0 0
2.03514 -0.835918 0.507939 255 0 0
2.03746 -0.870731 0.511539 255 0 0
2.05179 -0.876857 0.515138 255 0 0
2.04307 -0.906644 0.516038 255 0 0
2.04307 -0.906644 0.516038 255 0 0
2.03729 -0.938343 0.517837 255 0 0
2.05145 -0.944865 0.521437 255 0 0
2.05565 -0.981814 0.525936 255 0 0
2.05916 -0.983494 0.526835 255 0 0
2.04191 -1.01006 0.525936 255 0 0
2.05239 -1.01525 0.528635 255 0 0
2.05016 -1.05002 0.531784 255 0 0
2.06577 -1.05802 0.535833 255 0 0
2.04735 -1.08493 0.534934 255 0 0
2.04563 -1.08402 0.534484 255 0 0
2.0508 -1.12371 0.539883 255 0 0
2.06618 -1.13214 0.543932 255 0 0
2.06766 -0.750526 -0.0383953 255 0 0
2.06954 -0.751208 -0.0384302 255 0 0
2.06273 -0.781087 -0.0385 255 0 0
2.07021 -0.78392 -0.0386396 255 0 0
2.05906 -0.812748 -0.0386396 255 0 0
2.07766 -0.82009 -0.0389887 255 0 0
2.07171 -0.850937 -0.0390934 255 0 0
2.05876 -0.845619 -0.0388491 255 0 0
2.06131 -0.880925 -0.0391283 255 0 0
2.06683 -0.883283 -0.039233 255 0 0
2.0709 -0.918995 -0.0395472 255 0 0
2.07273 -0.919807 -0.0395821 255 0 0
2.05242 -0.945311 -0.0394424 255 0 0
2.07422 -0.955349 -0.0398613 255 0 0
2.0697 -0.988526 -0.0400358 255 0 0
2.07692 -0.991973 -0.0401754 255 0 0
2.06842 -1.02317 -0.0402802 255 0 0
2.06304 -1.02051 -0.0401754 255 0 0
2.06105 -1.0556 -0.0404198 255 0 0
2.07885 -1.06472 -0.0407688 255 0 0
2.07968 -1.10207 -0.041083 255 0 0
2.07792 -1.10113 -0.0410481 255 0 0
2.0676 -1.13292 -0.0411528 255 0 0
2.07812 -1.13868 -0.0413622 255 0 0
2.04291 -0.741541 0.582343 255 0 0
2.05744 -0.746814 0.586484 255 0 0
2.04875 -0.775795 0.587002 255 0 0
2.04153 -0.773058 0.584931 255 0 0
2.0485 -0.80858 0.590107 255 0 0
2.06288 -0.814254 0.594249 255 0 0
2.06039 -0.846289 0.596837 255 0 0
2.06218 -0.847023 0.597354 255 0 0
2.05 -0.876091 0.597354 255 0 0
2.06066 -0.880646 0.60046 255 0 0
2.06068 -0.914459 0.604084 255 0 0
2.06774 -0.917593 0.606154 255 0 0
2.06175 -0.949607 0.608225 255 0 0
2.05824 -0.947991 0.607189 255 0 0
2.05003 -0.979133 0.608742 255 0 0
2.05875 -0.983296 0.611331 255 0 0
2.06231 -1.02015 0.616507 255 0 0
2.05885 -1.01844 0.615472 255 0 0
2.04787 -1.04885 0.616507 255 0 0
2.05818 -1.05413 0.619613 255 0 0
2.06034 -1.09181 0.624789 255 0 0
2.07058 -1.09724 0.627895 255 0 0
2.06014 -1.12883 0.629448 255 0 0
2.06183 -1.12976 0.629966 255 0 0
2.04465 -0.374526 -0.556979 255 0 0
2.04465 -0.374526 -0.556979 255 0 0
2.03944 -0.40197 -0.556979 255 0 0
2.04133 -0.402344 -0.557496 255 0 0
2.04292 -0.433119 -0.559567 255 0 0
2.04859 -0.434321 -0.56112 255 0 0
2.0461 -0.463735 -0.562155 255 0 0
2.04233 -0.462881 -0.56112 255 0 0
2.04506 -0.493618 -0.563708 255 0 0
2.04881 -0.494525 -0.564743 255 0 0
2.05294 -0.525959 -0.567849 255 0 0
2.04919 -0.525 -0.566814 255 0 0
2.04363 -0.553709 -0.567331 255 0 0
2.04549 -0.554214 -0.567849 255 0 0
2.05231 -0.587327 -0.57199 255 0 0
2.05974 -0.589454 -0.574061 255 0 0
2.05696 -0.619468 -0.575614 255 0 0
2.04587 -0.616125 -0.572508 255 0 0
2.04996 -0.64871 -0.576131 255 0 0
2.04812 -0.648127 -0.575614 255 0 0
2.03703 -0.676052 -0.575096 255 0 0
2.0352 -0.675443 -0.574578 255 0 0
2.01645 -0.700623 -0.57199 255 0 0
2.04199 -0.709499 -0.579237 255 0 0
2.02401 -0.370745 0.0359171 255 0 0
2.03581 -0.372907 0.0361265 255 0 0
2.02866 -0.399845 0.0360916 255 0 0
2.02081 -0.398298 0.035952 255 0 0
2.02273 -0.428837 0.0360916 255 0 0
2.03446 -0.431325 0.036301 255 0 0
2.03604 -0.461457 0.0364406 255 0 0
2.03604 -0.461457 0.0364406 255 0 0
2.02357 -0.488432 0.0363359 255 0 0
2.03135 -0.490309 0.0364755 255 0 0
2.03593 -0.521601 0.036685 255 0 0
2.04367 -0.523586 0.0368246 255 0 0
2.03626 -0.551713 0.0368246 255 0 0
2.04012 -0.552759 0.0368944 255 0 0
2.03787 -0.583195 0.0369991 255 0 0
2.04556 -0.585396 0.0371387 255 0 0
2.04495 -0.61585 0.0372783 255 0 0
2.04112 -0.614697 0.0372085 255 0 0
2.03616 -0.644342 0.0372783 255 0 0
2.04759 -0.647962 0.0374878 255 0 0
2.04404 -0.678378 0.0375925 255 0 0
2.05733 -0.682787 0.0378368 255 0 0
2.04382 -0.710132 0.037767 255 0 0
2.04193 -0.709476 0.0377321 255 0 0
2.02419 -0.370778 -0.475097 255 0 0
2.03569 -0.372885 -0.477796 255 0 0
2.03623 -0.401339 -0.479146 255 0 0
2.03623 -0.401339 -0.479146 255 0 0
2.02456 -0.429226 -0.477796 255 0 0
2.03219 -0.430843 -0.479596 255 0 0
2.03358 -0.460898 -0.481395 255 0 0
2.04688 -0.463913 -0.484545 255 0 0
2.0421 -0.492904 -0.484994 255 0 0
2.03452 -0.491075 -0.483195 255 0 0
2.02935 -0.519917 -0.483645 255 0 0
2.04634 -0.52427 -0.487694 255 0 0
2.04268 -0.553453 -0.488594 255 0 0
2.04644 -0.554473 -0.489493 255 0 0
2.02903 -0.580666 -0.487244 255 0 0
2.04402 -0.584956 -0.490843 255 0 0
2.04696 -0.616454 -0.493543 255 0 0
2.04882 -0.617016 -0.493993 255 0 0
2.0493 -0.648502 -0.496242 255 0 0
2.03815 -0.644974 -0.493543 255 0 0
2.00675 -0.666002 -0.488144 255 0 0
2.0012 -0.664161 -0.486794 255 0 0
2.00094 -0.695235 -0.489044 255 0 0
2.03223 -0.706108 -0.496692 255 0 0
2.0353 -0.372813 0.10844 255 0 0
2.03923 -0.373532 0.108649 255 0 0
2.04186 -0.402448 0.109068 255 0 0
2.04774 -0.403607 0.109382 255 0 0
2.04175 -0.432871 0.109382 255 0 0
