ply
format ascii 1.0
element vertex 1369
property float x
property float y
property float z
property uchar red
property uchar green
property uchar blue
end_header
-4.7128 6.16409 1.22895 0 255 0
-4.65925 6.27369 1.23771 0 255 0
-4.68752 6.31175 1.24522 0 255 0
-4.92324 4.86515 -0.605558 0 255 0
-4.92891 4.87076 -0.606255 0 255 0
-4.88644 4.96381 -0.609393 0 255 0
-4.9144 4.9922 -0.612879 0 255 0
-4.87128 5.08683 -0.616191 0 255 0
-4.88506 5.10122 -0.617934 0 255 0
-4.8283 5.18497 -0.619852 0 255 0
-4.84731 5.20538 -0.622292 0 255 0
-4.79689 5.29766 -0.625255 0 255 0
-4.81962 5.32277 -0.628219 0 255 0
-4.78133 5.42908 -0.632925 0 255 0
-4.79055 5.43955 -0.634145 0 255 0
-4.73453 5.52778 -0.63676 0 255 0
-4.76305 5.56107 -0.640595 0 255 0
-4.70789 5.65459 -0.643732 0 255 0
-4.73466 5.68675 -0.647393 0 255 0
-4.67962 5.78091 -0.650705 0 255 0
-4.69968 5.80569 -0.653494 0 255 0
-4.64136 5.89812 -0.656631 0 255 0
-4.67093 5.93569 -0.660815 0 255 0
-4.62027 6.04307 -0.665521 0 255 0
-4.63722 6.06523 -0.667962 0 255 0
-4.57465 6.15977 -0.671274 0 255 0
-4.60316 6.19816 -0.675457 0 255 0
-5.00346 4.94443 1.36734 0 255 0
-5.01184 4.95271 1.36963 0 255 0
-4.95685 5.03533 1.37344 0 255 0
-4.98026 5.05911 1.37993 0 255 0
-4.93719 5.15566 1.38756 0 255 0
-4.96163 5.18118 1.39443 0 255 0
-4.91824 5.28156 1.40283 0 255 0
-4.92226 5.28587 1.40397 0 255 0
-4.87828 5.38755 1.41275 0 255 0
-4.8941 5.40501 1.41733 0 255 0
-4.85674 5.51471 1.4284 0 255 0
-4.88139 5.5427 1.43565 0 255 0
-4.82494 5.63333 1.44175 0 255 0
-4.83133 5.64079 1.44366 0 255 0
-4.7835 5.74541 1.4532 0 255 0
-4.81616 5.78464 1.46312 0 255 0
-4.75695 5.87644 1.46961 0 255 0
-4.77918 5.9039 1.47648 0 255 0
-4.73496 6.01706 1.48831 0 255 0
-4.75924 6.04792 1.49594 0 255 0
-4.69699 6.14341 1.50319 0 255 0
-4.71727 6.16993 1.50968 0 255 0
-4.6529 6.26514 1.51693 0 255 0
-4.67514 6.29508 1.52418 0 255 0
-4.94806 4.88968 -0.364572 0 255 0
-4.97079 4.91214 -0.366247 0 255 0
-4.92361 5.00156 -0.367817 0 255 0
-4.92641 5.00441 -0.368026 0 255 0
-4.87904 5.09493 -0.369701 0 255 0
-4.91772 5.13532 -0.372632 0 255 0
-4.8646 5.22395 -0.374097 0 255 0
-4.88365 5.24441 -0.375563 0 255 0
-4.8247 5.32837 -0.376714 0 255 0
-4.84883 5.35502 -0.378598 0 255 0
-4.80094 5.45134 -0.380692 0 255 0
-4.83658 5.49181 -0.383518 0 255 0
-4.77729 5.5777 -0.384879 0 255 0
-4.79678 5.60045 -0.386449 0 255 0
-4.73473 5.68683 -0.387809 0 255 0
-4.76156 5.71907 -0.390008 0 255 0
-4.71744 5.82764 -0.392938 0 255 0
-4.73378 5.84782 -0.394299 0 255 0
-4.6737 5.93921 -0.396079 0 255 0
-4.69593 5.96747 -0.397963 0 255 0
-4.64491 6.07529 -0.400789 0 255 0
-4.67281 6.11178 -0.403196 0 255 0
-4.6156 6.21491 -0.405708 0 255 0
-4.63465 6.24057 -0.407383 0 255 0
-4.98172 4.92294 1.61695 0 255 0
-5.01082 4.9517 1.6264 0 255 0
-4.96395 5.04254 1.63359 0 255 0
-4.98309 5.06198 1.63989 0 255 0
-4.92226 5.14006 1.64304 0 255 0
-4.94382 5.16258 1.65024 0 255 0
-4.89915 5.26105 1.65969 0 255 0
-4.92704 5.291 1.66914 0 255 0
-4.87492 5.38383 1.67679 0 255 0
-4.88931 5.39972 1.68173 0 255 0
-4.84015 5.49587 1.69073 0 255 0
-4.86205 5.52073 1.69838 0 255 0
-4.82223 5.63017 1.71143 0 255 0
-4.84124 5.65237 1.71818 0 255 0
-4.77682 5.73738 1.72357 0 255 0
-4.80175 5.76734 1.73257 0 255 0
-4.74753 5.8648 1.74202 0 255 0
-4.77205 5.89509 1.75102 0 255 0
-4.71924 5.99708 1.76182 0 255 0
-4.73973 6.02312 1.76946 0 255 0
-4.67766 6.11812 1.77801 0 255 0
-4.71435 6.16611 1.79196 0 255 0
-4.64987 6.26106 1.80051 0 255 0
-4.68008 6.30174 1.81221 0 255 0
-4.95267 4.89424 -0.121539 0 255 0
-4.98681 4.92797 -0.122376 0 255 0
-4.94645 5.02476 -0.123074 0 255 0
-4.96889 5.04756 -0.123633 0 255 0
-4.91266 5.13003 -0.123982 0 255 0
-4.92787 5.14592 -0.124366 0 255 0
-4.8828 5.24349 -0.125064 0 255 0
-4.91141 5.27422 -0.125797 0 255 0
-4.86146 5.36897 -0.126425 0 255 0
-4.87756 5.38675 -0.126844 0 255 0
-4.82265 5.476 -0.127368 0 255 0
-4.8438 5.50001 -0.127926 0 255 0
-4.79482 5.59817 -0.128659 0 255 0
-4.82214 5.63006 -0.129392 0 255 0
-4.77121 5.73065 -0.13016 0 255 0
-4.78912 5.75217 -0.130649 0 255 0
-4.73075 5.84407 -0.131242 0 255 0
-4.7534 5.87205 -0.13187 0 255 0
-4.70413 5.97789 -0.132778 0 255 0
-4.72516 6.0046 -0.133371 0 255 0
-4.66272 6.09859 -0.134 0 255 0
-4.69551 6.14148 -0.134942 0 255 0
-4.6415 6.24978 -0.135884 0 255 0
-4.66773 6.2851 -0.136652 0 255 0
-4.98251 4.92373 1.87696 0 255 0
-5.00313 4.9441 1.88472 0 255 0
-4.94532 5.02362 1.88886 0 255 0
-4.97378 5.05253 1.89973 0 255 0
-4.93438 5.15272 1.91164 0 255 0
-4.94774 5.16667 1.91681 0 255 0
-4.88565 5.24656 1.92095 0 255 0
-4.90409 5.26635 1.9282 0 255 0
-4.8612 5.36868 1.94063 0 255 0
-4.88713 5.39732 1.95098 0 255 0
-4.83906 5.49464 1.96185 0 255 0
-4.84928 5.50623 1.96599 0 255 0
-4.79426 5.59751 1.97479 0 255 0
-4.82819 5.63713 1.98877 0 255 0
-4.76879 5.72775 1.99705 0 255 0
-4.79846 5.76338 2.00947 0 255 0
-4.73556 5.85001 2.01672 0 255 0
-4.755 5.87404 2.025 0 255 0
-4.7094 5.98458 2.04053 0 255 0
-4.7333 6.01495 2.05088 0 255 0
-4.67467 6.11421 2.06227 0 255 0
-4.69227 6.13723 2.07003 0 255 0
-4.63492 6.24092 2.08298 0 255 0
-4.6591 6.27349 2.09385 0 255 0
-4.53402 3.18775 -1.4851 255 192 203
-4.52612 3.18219 -1.48252 255 192 203
-4.47243 3.2375 -1.47941 255 192 203
-4.45678 3.22617 -1.47423 255 192 203
-4.40046 3.28 -1.47061 255 192 203
-4.39736 3.27769 -1.46957 255 192 203
-4.36095 3.34506 -1.47268 255 192 203
-4.37781 3.358 -1.47837 255 192 203
-4.34203 3.42913 -1.48252 255 192 203
-4.35567 3.4399 -1.48717 255 192 203
-4.31533 3.50572 -1.48976 255 192 203
-4.32882 3.51668 -1.49442 255 192 203
-4.31106 3.60205 -1.50529 255 192 203
-4.33478 3.62187 -1.51357 255 192 203
-4.29175 3.68758 -1.51616 255 192 203
-4.30201 3.6964 -1.51979 255 192 203
-4.27025 3.77401 -1.52703 255 192 203
-4.26156 3.76634 -1.52393 255 192 203
-4.23143 3.84626 -1.53221 255 192 203
-4.2443 3.85795 -1.53687 255 192 203
-4.20695 3.93267 -1.54308 255 192 203
-4.21401 3.93927 -1.54567 255 192 203
-4.19412 4.03046 -1.55861 255 192 203
-4.21641 4.05187 -1.56689 255 192 203
-5.27398 3.70799 0.112533 0 255 0
-5.27398 3.70799 0.112533 0 255 0
-5.23693 3.79091 0.112847 0 255 0
-5.25151 3.80146 0.113161 0 255 0
-5.22357 3.89353 0.11372 0 255 0
-5.24121 3.90668 0.114104 0 255 0
-5.1932 3.98344 0.114243 0 255 0
-5.21224 3.99804 0.114662 0 255 0
-5.17246 4.08496 0.115046 0 255 0
-5.196 4.10355 0.11557 0 255 0
-5.1591 4.19119 0.116024 0 255 0
-5.16065 4.19245 0.116059 0 255 0
-5.12231 4.27988 0.116512 0 255 0
-5.13919 4.29398 0.116896 0 255 0
-5.1068 4.38789 0.117525 0 255 0
-5.125 4.40353 0.117943 0 255 0
-5.075 4.48525 0.118223 0 255 0
-5.08999 4.49849 0.118572 0 255 0
-5.04148 4.58257 0.118921 0 255 0
-5.06515 4.60409 0.119479 0 255 0
-5.02375 4.69621 0.120038 0 255 0
-5.02813 4.70031 0.120142 0 255 0
-4.99169 4.7969 0.12084 0 255 0
-5.01476 4.81907 0.121399 0 255 0
-5.08539 3.5754 -1.43519 0 255 0
-5.09176 3.57988 -1.43699 0 255 0
-5.04982 3.65546 -1.43924 0 255 0
-5.06087 3.66346 -1.44239 0 255 0
-5.02328 3.74424 -1.44644 0 255 0
-5.04047 3.75705 -1.45138 0 255 0
-5.0052 3.83924 -1.45633 0 255 0
-5.01757 3.84873 -1.45993 0 255 0
-4.96878 3.9241 -1.46173 0 255 0
-4.97337 3.92773 -1.46308 0 255 0
-4.90815 3.98732 -1.45993 0 255 0
-4.90664 3.9861 -1.45948 0 255 0
-4.83925 4.04337 -1.45588 255 192 203
-4.81981 4.02713 -1.45003 255 192 203
-4.76383 4.0932 -1.45003 255 192 203
-4.74461 4.07669 -1.44419 255 192 203
-4.68577 4.14125 -1.44374 255 192 203
-4.64926 4.10898 -1.43249 255 192 203
-4.58567 4.16825 -1.43069 255 192 203
-4.57846 4.1617 -1.42844 255 192 203
-4.51564 4.22123 -1.42709 255 192 203
-4.50994 4.2159 -1.42529 255 192 203
-4.43593 4.26283 -1.42034 255 192 203
-4.4275 4.25473 -1.41764 255 192 203
-5.27245 3.70692 0.337776 0 255 0
-5.30023 3.72645 0.339556 0 255 0
-5.25967 3.80737 0.340288 0 255 0
-5.271 3.81557 0.341021 0 255 0
-5.22682 3.89595 0.341649 0 255 0
-5.25084 3.91385 0.343219 0 255 0
-5.22332 4.00654 0.344999 0 255 0
-5.23916 4.0187 0.346045 0 255 0
-5.18653 4.09608 0.346359 0 255 0
-5.20221 4.10846 0.347406 0 255 0
-5.16367 4.1949 0.348662 0 255 0
-5.17917 4.2075 0.349709 0 255 0
-5.14059 4.29515 0.35107 0 255 0
-5.15439 4.30668 0.352012 0 255 0
-5.10512 4.38645 0.352744 0 255 0
-5.13845 4.41508 0.355047 0 255 0
-5.08977 4.4983 0.355989 0 255 0
-5.11222 4.51814 0.357559 0 255 0
-5.05751 4.59714 0.358187 0 255 0
-5.06933 4.60788 0.359025 0 255 0
-5.03222 4.70413 0.361013 0 255 0
-5.05848 4.72868 0.362898 0 255 0
-5.01297 4.81735 0.364363 0 255 0
-5.02593 4.8298 0.365305 0 255 0
-5.13772 3.61219 -1.2208 0 255 0
-5.14736 3.61896 -1.22309 0 255 0
-5.12718 3.71146 -1.23034 0 255 0
-5.13514 3.71722 -1.23224 0 255 0
-5.08588 3.7909 -1.23301 0 255 0
-5.10635 3.80615 -1.23797 0 255 0
-5.07208 3.89053 -1.24255 0 255 0
-5.08142 3.8977 -1.24484 0 255 0
-5.03198 3.97402 -1.24636 0 255 0
-5.0443 3.98375 -1.24942 0 255 0
-5.00718 4.06778 -1.254 0 255 0
-5.02242 4.08015 -1.25781 0 255 0
-4.9913 4.17041 -1.2643 0 255 0
-5.00184 4.17923 -1.26697 0 255 0
-4.9497 4.25291 -1.2685 0 255 0
-4.96608 4.26698 -1.2727 0 255 0
-4.92221 4.35021 -1.27689 0 255 0
-4.94721 4.37231 -1.28338 0 255 0
-4.90166 4.45548 -1.28758 0 255 0
-4.91183 4.46473 -1.29025 0 255 0
-4.86623 4.54896 -1.29483 0 255 0
-4.88344 4.56505 -1.29941 0 255 0
-4.84268 4.65371 -1.30552 0 255 0
-4.86816 4.6782 -1.31238 0 255 0
-5.28568 3.71621 0.565292 0 255 0
-5.2922 3.7208 0.565989 0 255 0
-5.26944 3.81444 0.569127 0 255 0
-5.28235 3.82379 0.570521 0 255 0
-5.24922 3.91265 0.572788 0 255 0
-5.26679 3.92574 0.574705 0 255 0
-5.21058 3.99678 0.574531 0 255 0
-5.24694 4.02467 0.57854 0 255 0
-5.1989 4.10585 0.579586 0 255 0
-5.20985 4.11449 0.580806 0 255 0
-5.16809 4.19849 0.582549 0 255 0
-5.18046 4.20854 0.583943 0 255 0
-5.15099 4.30384 0.587255 0 255 0
-5.17087 4.32045 0.589521 0 255 0
-5.1229 4.40172 0.590916 0 255 0
-5.13952 4.416 0.592833 0 255 0
-5.08184 4.49129 0.593356 0 255 0
-5.11767 4.52296 0.59754 0 255 0
-5.06876 4.60737 0.599283 0 255 0
-5.09088 4.62747 0.601898 0 255 0
-5.04761 4.71851 0.604512 0 255 0
-5.05925 4.7294 0.605907 0 255 0
-5.00505 4.80975 0.607301 0 255 0
-5.04528 4.8484 0.612182 0 255 0
-5.17267 3.63677 -1.00149 0 255 0
-5.17914 3.64131 -1.00274 0 255 0
-5.14124 3.72164 -1.00525 0 255 0
-5.16524 3.73901 -1.00994 0 255 0
-5.12996 3.82375 -1.01338 0 255 0
-5.13629 3.82847 -1.01463 0 255 0
-5.09556 3.90855 -1.01714 0 255 0
-5.10653 3.91696 -1.01933 0 255 0
-5.07855 4.0108 -1.02496 0 255 0
-5.08475 4.01569 -1.02621 0 255 0
-5.0473 4.10037 -1.02996 0 255 0
-5.0565 4.10784 -1.03184 0 255 0
-5.01757 4.19237 -1.0356 0 255 0
-5.03425 4.2063 -1.03904 0 255 0
-4.99825 4.29462 -1.04373 0 255 0
-5.01173 4.3062 -1.04655 0 255 0
-4.97036 4.39277 -1.05061 0 255 0
-4.97776 4.39931 -1.05218 0 255 0
-4.93924 4.48964 -1.05718 0 255 0
-4.96409 4.51222 -1.0625 0 255 0
-4.91936 4.59863 -1.06657 0 255 0
-4.93379 4.61212 -1.0697 0 255 0
-4.8854 4.69476 -1.07314 0 255 0
-4.90819 4.71666 -1.07815 0 255 0
-5.30204 3.72772 0.795807 0 255 0
-5.3264 3.74485 0.799463 0 255 0
-5.26944 3.81444 0.798732 0 255 0
-5.29356 3.8319 0.802388 0 255 0
-5.26023 3.92086 0.805556 0 255 0
-5.26501 3.92442 0.806288 0 255 0
-5.23403 4.01476 0.809944 0 255 0
-5.23875 4.01838 0.810675 0 255 0
-5.20012 4.1068 0.8136 0 255 0
-5.21881 4.12157 0.816525 0 255 0
-5.18152 4.2094 0.819693 0 255 0
-5.20617 4.22943 0.823593 0 255 0
-5.15498 4.30717 0.824812 0 255 0
-5.17326 4.32245 0.827737 0 255 0
-5.13575 4.41277 0.831393 0 255 0
-5.14328 4.41924 0.832611 0 255 0
-5.10785 4.51428 0.836999 0 255 0
-5.12124 4.52611 0.839192 0 255 0
-5.08105 4.61854 0.843092 0 255 0
-5.09867 4.63456 0.846017 0 255 0
-5.05377 4.72427 0.849429 0 255 0
-5.07552 4.74461 0.853085 0 255 0
-5.02966 4.83339 0.856498 0 255 0
-5.03682 4.84027 0.857716 0 255 0
-5.19487 3.65237 -0.77972 0 255 0
-5.20948 3.66264 -0.781914 0 255 0
-5.18904 3.75624 -0.786545 0 255 0
-5.18904 3.75624 -0.786545 0 255 0
-5.14882 3.83781 -0.788495 0 255 0
-5.1711 3.85442 -0.791907 0 255 0
-5.12692 3.9326 -0.793369 0 255 0
-5.14425 3.94589 -0.796051 0 255 0
-5.10197 4.02929 -0.798244 0 255 0
-5.12222 4.04529 -0.801413 0 255 0
-5.07983 4.12679 -0.803606 0 255 0
-5.10294 4.14557 -0.807263 0 255 0
-5.06358 4.2308 -0.810187 0 255 0
-5.06815 4.23462 -0.810919 0 255 0
-5.02735 4.31962 -0.813843 0 255 0
-5.05294 4.34161 -0.817987 0 255 0
-5.01266 4.43015 -0.821399 0 255 0
-5.0305 4.44592 -0.824324 0 255 0
-4.97675 4.52374 -0.825787 0 255 0
-4.99144 4.53709 -0.828224 0 255 0
-4.94791 4.62532 -0.831636 0 255 0
-4.97401 4.64972 -0.836024 0 255 0
-4.92804 4.73574 -0.839192 0 255 0
-4.93806 4.74536 -0.840898 0 255 0
-5.28902 3.71857 1.02402 0 255 0
-5.3068 3.73106 1.02746 0 255 0
-5.26925 3.8143 1.03028 0 255 0
-5.28685 3.82704 1.03372 0 255 0
-5.24557 3.90993 1.03622 0 255 0
-5.25666 3.9182 1.03841 0 255 0
-5.22565 4.00833 1.04311 0 255 0
-5.24289 4.02156 1.04655 0 255 0
-5.20722 4.11241 1.05093 0 255 0
-5.21497 4.11854 1.05249 0 255 0
-5.16076 4.19254 1.05312 0 255 0
-5.18682 4.21371 1.05844 0 255 0
-5.15552 4.30762 1.06407 0 255 0
-5.17371 4.32282 1.06782 0 255 0
-5.11811 4.39761 1.06876 0 255 0
-5.13759 4.41434 1.07283 0 255 0
-5.09913 4.50657 1.07783 0 255 0
-5.12874 4.53274 1.08409 0 255 0
-5.07372 4.61188 1.08597 0 255 0
-5.0898 4.62649 1.08941 0 255 0
-5.04058 4.71194 1.09285 0 255 0
-5.06367 4.73353 1.09786 0 255 0
-5.02071 4.82479 1.10286 0 255 0
-5.04635 4.84943 1.10849 0 255 0
-5.22048 3.67038 -0.55832 0 255 0
-5.23026 3.67725 -0.559366 0 255 0
-5.20489 3.76771 -0.562155 0 255 0
-5.22425 3.78173 -0.564246 0 255 0
-5.17733 3.85907 -0.564944 0 255 0
-5.18692 3.86621 -0.565989 0 255 0
-5.15209 3.95191 -0.568081 0 255 0
-5.16316 3.9604 -0.569301 0 255 0
-5.13011 4.05151 -0.571916 0 255 0
-5.14887 4.06633 -0.574008 0 255 0
-5.10932 4.15076 -0.575925 0 255 0
-5.12015 4.15955 -0.577145 0 255 0
-5.07913 4.2438 -0.579063 0 255 0
-5.10207 4.26296 -0.581677 0 255 0
-5.05792 4.34589 -0.583421 0 255 0
-5.06547 4.35238 -0.584292 0 255 0
-5.02511 4.44115 -0.586732 0 255 0
-5.04601 4.45962 -0.589173 0 255 0
-5.00537 4.54975 -0.591788 0 255 0
-5.01421 4.55779 -0.592833 0 255 0
-4.97629 4.65184 -0.595971 0 255 0
-4.99521 4.66953 -0.598237 0 255 0
-4.94759 4.75452 -0.600329 0 255 0
-4.9677 4.77385 -0.602769 0 255 0
-5.28869 3.71833 1.25667 0 255 0
-5.31117 3.73414 1.26201 0 255 0
-5.25282 3.80241 1.26048 0 255 0
-5.28622 3.82658 1.2685 0 255 0
-5.25116 3.9141 1.27308 0 255 0
-5.26848 3.927 1.27728 0 255 0
-5.21695 4.00166 1.27804 0 255 0
-5.24031 4.01958 1.28376 0 255 0
-5.19221 4.10056 1.28605 0 255 0
-5.20762 4.11273 1.28987 0 255 0
-5.18699 4.21385 1.29903 0 255 0
-5.18089 4.2089 1.2975 0 255 0
-5.14798 4.30133 1.30399 0 255 0
-5.16004 4.3114 1.30704 0 255 0
-5.13137 4.409 1.31506 0 255 0
-5.15818 4.43203 1.32192 0 255 0
-5.09138 4.49972 1.32078 0 255 0
-5.11344 4.51922 1.3265 0 255 0
-5.06002 4.59942 1.32918 0 255 0
-5.10215 4.63772 1.34024 0 255 0
-5.0412 4.71252 1.34139 0 255 0
-5.06415 4.73397 1.34749 0 255 0
-5.01538 4.81967 1.35207 0 255 0
-5.03662 4.84008 1.3578 0 255 0
-5.24631 3.68854 -0.336102 0 255 0
-5.25938 3.69773 -0.336939 0 255 0
-5.21599 3.77575 -0.337462 0 255 0
-5.23379 3.78863 -0.338614 0 255 0
-5.2044 3.87924 -0.340184 0 255 0
-5.23002 3.89834 -0.341858 0 255 0
-5.19321 3.98345 -0.34301 0 255 0
-5.19955 3.98831 -0.343429 0 255 0
-5.14735 4.06513 -0.343743 0 255 0
-5.16616 4.07998 -0.344999 0 255 0
-5.12646 4.16468 -0.34615 0 255 0
-5.15282 4.18609 -0.347929 0 255 0
-5.09921 4.26058 -0.348243 0 255 0
-5.12067 4.27851 -0.349709 0 255 0
-5.07785 4.36302 -0.35086 0 255 0
-5.093 4.37603 -0.351907 0 255 0
-5.05834 4.47052 -0.353791 0 255 0
-5.06433 4.47582 -0.35421 0 255 0
-5.01612 4.55952 -0.355256 0 255 0
-5.03534 4.57699 -0.356617 0 255 0
-4.99574 4.67003 -0.358397 0 255 0
-5.02784 4.70004 -0.360699 0 255 0
-4.9784 4.78414 -0.361851 0 255 0
-4.99425 4.79936 -0.363002 0 255 0
-5.28625 3.71662 1.49188 0 255 0
-5.30698 3.73119 1.49772 0 255 0
-5.26766 3.81315 1.50132 0 255 0
-5.27713 3.82 1.50402 0 255 0
-5.23578 3.90263 1.50762 0 255 0
-5.25609 3.91777 1.51347 0 255 0
-5.22013 4.0041 1.51887 0 255 0
-5.23095 4.0124 1.52202 0 255 0
-5.189 4.09803 1.52652 0 255 0
-5.20582 4.11131 1.53147 0 255 0
-5.16528 4.19621 1.53642 0 255 0
-5.18646 4.21342 1.54271 0 255 0
-5.14282 4.29702 1.54721 0 255 0
-5.15479 4.30701 1.55081 0 255 0
-5.10674 4.38784 1.55441 0 255 0
-5.13187 4.40943 1.56206 0 255 0
-5.09024 4.49872 1.56836 0 255 0
-5.10631 4.51291 1.57331 0 255 0
-5.06587 4.60474 1.58051 0 255 0
-5.07885 4.61654 1.58456 0 255 0
-5.03383 4.70563 1.59085 0 255 0
-5.06087 4.73092 1.5994 0 255 0
-5.01484 4.81915 1.6057 0 255 0
-5.02889 4.83265 1.6102 0 255 0
-5.25598 3.69534 -0.112149 0 255 0
-5.28052 3.71259 -0.112673 0 255 0
-5.24827 3.79911 -0.113092 0 255 0
-5.25799 3.80615 -0.113301 0 255 0
-5.21716 3.88875 -0.11358 0 255 0
-5.22999 3.89831 -0.113859 0 255 0
-5.19478 3.98466 -0.114278 0 255 0
-5.21224 3.99804 -0.114662 0 255 0
-5.17874 4.08992 -0.115186 0 255 0
-5.17874 4.08992 -0.115186 0 255 0
-5.14824 4.18237 -0.115779 0 255 0
-5.16221 4.19372 -0.116093 0 255 0
-5.12538 4.28244 -0.116582 0 255 0
-5.14072 4.29526 -0.116931 0 255 0
-5.09921 4.38137 -0.11735 0 255 0
-5.11741 4.39701 -0.117769 0 255 0
-5.07201 4.4826 -0.118153 0 255 0
-5.09298 4.50114 -0.118641 0 255 0
-5.04888 4.58929 -0.119095 0 255 0
-5.05776 4.59737 -0.119305 0 255 0
-5.02229 4.69485 -0.120003 0 255 0
-5.04274 4.71396 -0.120491 0 255 0
-5.00322 4.80798 -0.12112 0 255 0
-5.0162 4.82045 -0.121434 0 255 0
-5.28153 3.7133 1.72995 0 255 0
-5.30049 3.72663 1.73616 0 255 0
-5.26269 3.80955 1.74082 0 255 0
-5.28304 3.82428 1.74755 0 255 0
-5.24771 3.91152 1.75376 0 255 0
-5.25855 3.91961 1.75738 0 255 0
-5.21168 3.99762 1.75997 0 255 0
-5.2362 4.01643 1.76825 0 255 0
-5.19861 4.10561 1.77498 0 255 0
-5.20619 4.1116 1.77757 0 255 0
-5.158 4.1903 1.78068 0 255 0
-5.17599 4.20492 1.78689 0 255 0
-5.1368 4.29199 1.79362 0 255 0
-5.162 4.31304 1.80242 0 255 0
-5.1167 4.39639 1.80759 0 255 0
-5.12695 4.40521 1.81122 0 255 0
-5.091 4.49939 1.82053 0 255 0
-5.10548 4.51218 1.82571 0 255 0
-5.06628 4.60512 1.83451 0 255 0
-5.0863 4.62331 1.84176 0 255 0
-5.03536 4.70707 1.84693 0 255 0
-5.05089 4.72158 1.85263 0 255 0
-5.01038 4.81486 1.86194 0 255 0
-5.03684 4.8403 1.87178 0 255 0
-5.20702 2.49143 -1.5467 255 192 203
-5.20005 2.4881 -1.54463 255 192 203
-5.14883 2.54918 -1.53946 255 192 203
-5.13498 2.54233 -1.53531 255 192 203
-5.07057 2.60144 -1.52703 255 192 203
-5.08432 2.6085 -1.53117 255 192 203
-5.03375 2.67199 -1.52703 255 192 203
-5.03375 2.67199 -1.52703 255 192 203
-4.98627 2.73556 -1.52393 255 192 203
-4.96595 2.72441 -1.51771 255 192 203
-4.93463 2.79643 -1.51979 255 192 203
-4.92791 2.79262 -1.51771 255 192 203
-4.8856 2.85835 -1.51668 255 192 203
-4.87226 2.85054 -1.51254 255 192 203
-4.80553 2.90231 -1.50426 255 192 203
-4.80884 2.90431 -1.50529 255 192 203
-4.7667 2.96932 -1.50477 255 192 203
-4.74702 2.95706 -1.49856 255 192 203
-4.68902 3.01261 -1.49339 255 192 203
-4.67602 3.00425 -1.48924 255 192 203
-4.62717 3.06498 -1.48717 255 192 203
-4.62717 3.06498 -1.48717 255 192 203
-4.58393 3.12929 -1.48717 255 192 203
-4.58233 3.1282 -1.48666 255 192 203
-5.52337 2.6428 0.106879 0 255 0
-5.53599 2.64884 0.107123 0 255 0
-5.50706 2.72655 0.107262 0 255 0
-5.52857 2.73719 0.107681 0 255 0
-5.49417 2.81877 0.107786 0 255 0
-5.49239 2.81786 0.107751 0 255 0
-5.46841 2.90271 0.108065 0 255 0
-5.47724 2.9074 0.10824 0 255 0
-5.45066 2.99033 0.108519 0 255 0
-5.46468 2.99803 0.108798 0 255 0
-5.42283 3.07309 0.108798 0 255 0
-5.42631 3.07506 0.108868 0 255 0
-5.4041 3.1617 0.109287 0 255 0
-5.41791 3.16978 0.109566 0 255 0
-5.38682 3.25339 0.109845 0 255 0
-5.39367 3.25752 0.109985 0 255 0
-5.35673 3.33686 0.11016 0 255 0
-5.372 3.34638 0.110474 0 255 0
-5.34831 3.43619 0.110962 0 255 0
-5.35841 3.44268 0.111172 0 255 0
-5.31315 3.51937 0.111242 0 255 0
-5.33482 3.53372 0.111695 0 255 0
-5.28992 3.61124 0.1118 0 255 0
-5.31139 3.6259 0.112254 0 255 0
-5.3545 2.562 -1.3704 0 255 0
-5.35098 2.56032 -1.3695 0 255 0
-5.32482 2.63632 -1.37175 0 255 0
-5.34229 2.64496 -1.37625 0 255 0
-5.31602 2.72738 -1.3794 0 255 0
-5.32296 2.73093 -1.3812 0 255 0
-5.28259 2.80407 -1.38075 0 255 0
-5.29464 2.81047 -1.3839 0 255 0
-5.26734 2.88976 -1.38705 0 255 0
-5.28101 2.89726 -1.39065 0 255 0
-5.24904 2.9746 -1.3929 0 255 0
-5.24904 2.9746 -1.3929 0 255 0
-5.21594 3.05161 -1.39515 0 255 0
-5.2294 3.05949 -1.39875 0 255 0
-5.19951 3.14026 -1.40234 0 255 0
-5.21619 3.15034 -1.40684 0 255 0
-5.15572 3.21165 -1.40234 0 255 0
-5.17888 3.22608 -1.40864 0 255 0
-5.14645 3.3065 -1.41224 0 255 0
-5.16776 3.32019 -1.41809 0 255 0
-5.1339 3.40063 -1.42169 0 255 0
-5.13552 3.40171 -1.42214 0 255 0
-5.08914 3.47418 -1.42259 0 255 0
-5.11328 3.49066 -1.42934 0 255 0
-5.55447 2.65768 0.322704 0 255 0
-5.55807 2.65941 0.322913 0 255 0
-5.52362 2.73474 0.323018 0 255 0
-5.53436 2.74006 0.323646 0 255 0
-5.51058 2.82719 0.324588 0 255 0
-5.51591 2.82992 0.324902 0 255 0
-5.47586 2.90666 0.324902 0 255 0
-5.48468 2.91135 0.325425 0 255 0
-5.45627 2.99341 0.326158 0 255 0
-5.46678 2.99918 0.326786 0 255 0
-5.43707 3.08116 0.327518 0 255 0
-5.45097 3.08904 0.328356 0 255 0
-5.41476 3.16793 0.328774 0 255 0
-5.42338 3.17298 0.329298 0 255 0
-5.39906 3.26078 0.330554 0 255 0
-5.40761 3.26594 0.331077 0 255 0
-5.37902 3.35075 0.332124 0 255 0
-5.37224 3.34653 0.331705 0 255 0
-5.33339 3.42661 0.332229 0 255 0
-5.3586 3.4428 0.333799 0 255 0
-5.33165 3.53162 0.335159 0 255 0
-5.34664 3.54155 0.336102 0 255 0
-5.29997 3.61811 0.336311 0 255 0
-5.30822 3.62374 0.336834 0 255 0
-5.40323 2.58532 -1.16432 0 255 0
-5.41032 2.58871 -1.16584 0 255 0
-5.39087 2.66902 -1.16928 0 255 0
-5.38911 2.66815 -1.1689 0 255 0
-5.37134 2.75575 -1.17348 0 255 0
-5.37134 2.75575 -1.17348 0 255 0
-5.34448 2.83692 -1.17615 0 255 0
-5.36355 2.84705 -1.18034 0 255 0
-5.32207 2.91979 -1.17996 0 255 0
-5.32895 2.92356 -1.18149 0 255 0
-5.30009 3.00353 -1.18416 0 255 0
-5.31205 3.01031 -1.18683 0 255 0
-5.2819 3.0902 -1.1895 0 255 0
-5.28698 3.09318 -1.19065 0 255 0
-5.25336 3.17278 -1.19294 0 255 0
-5.26513 3.17989 -1.19561 0 255 0
-5.24078 3.26464 -1.20019 0 255 0
-5.24745 3.26879 -1.20171 0 255 0
-5.20955 3.34704 -1.20362 0 255 0
-5.21286 3.34917 -1.20439 0 255 0
-5.19669 3.44222 -1.21164 0 255 0
-5.2016 3.44547 -1.21278 0 255 0
-5.1692 3.52883 -1.2166 0 255 0
-5.17731 3.53437 -1.21851 0 255 0
-5.5571 2.65894 0.538971 0 255 0
-5.5625 2.66152 0.539494 0 255 0
-5.55122 2.74841 0.541934 0 255 0
-5.55479 2.75018 0.542283 0 255 0
-5.50955 2.82666 0.54176 0 255 0
-5.50955 2.82666 0.54176 0 255 0
-5.4977 2.91826 0.544549 0 255 0
-5.50298 2.92106 0.545072 0 255 0
-5.47267 3.00241 0.546118 0 255 0
-5.47441 3.00337 0.546292 0 255 0
-5.44288 3.08445 0.547338 0 255 0
-5.45328 3.09035 0.548384 0 255 0
-5.42219 3.17228 0.549604 0 255 0
-5.44799 3.18738 0.552219 0 255 0
-5.40807 3.26622 0.552742 0 255 0
-5.3859 3.25283 0.550476 0 255 0
-5.3862 3.35522 0.555182 0 255 0
-5.40142 3.3647 0.556751 0 255 0
-5.36565 3.44733 0.557971 0 255 0
-5.3623 3.44518 0.557622 0 255 0
-5.32862 3.52961 0.559191 0 255 0
-5.35021 3.54392 0.561457 0 255 0
-5.31008 3.62501 0.562503 0 255 0
-5.33312 3.64074 0.564944 0 255 0
-5.43303 2.59958 -0.953937 0 255 0
-5.43303 2.59958 -0.953937 0 255 0
-5.41885 2.68287 -0.957692 0 255 0
-5.4277 2.68725 -0.959256 0 255 0
-5.40099 2.77097 -0.961446 0 255 0
-5.3922 2.76646 -0.959882 0 255 0
-5.37224 2.85166 -0.963323 0 255 0
-5.37922 2.85537 -0.964575 0 255 0
-5.35666 2.93876 -0.967704 0 255 0
-5.36359 2.94256 -0.968955 0 255 0
-5.32251 3.01624 -0.968955 0 255 0
-5.3311 3.02111 -0.970519 0 255 0
-5.31281 3.10829 -0.9749 0 255 0
-5.32815 3.11727 -0.977715 0 255 0
-5.29087 3.19544 -0.978967 0 255 0
-5.28918 3.19442 -0.978654 0 255 0
-5.25805 3.2754 -0.981157 0 255 0
-5.26811 3.28166 -0.983034 0 255 0
-5.24172 3.36771 -0.986789 0 255 0
-5.25003 3.37305 -0.988353 0 255 0
-5.20572 3.4482 -0.988979 0 255 0
-5.21889 3.45693 -0.991482 0 255 0
-5.1897 3.54283 -0.995236 0 255 0
-5.20601 3.55396 -0.998365 0 255 0
-5.57077 2.66548 0.758271 0 255 0
-5.56361 2.66205 0.757296 0 255 0
-5.52911 2.73746 0.75754 0 255 0
-5.55224 2.74891 0.760708 0 255 0
-5.52646 2.83534 0.762658 0 255 0
-5.53706 2.84078 0.764121 0 255 0
-5.49335 2.91595 0.763633 0 255 0
-5.49685 2.91781 0.764121 0 255 0
-5.47177 3.00191 0.766314 0 255 0
-5.48743 3.01051 0.768508 0 255 0
-5.4644 3.09665 0.771189 0 255 0
-5.4644 3.09665 0.771189 0 255 0
-5.43318 3.17871 0.772895 0 255 0
-5.45031 3.18873 0.775333 0 255 0
-5.42225 3.27478 0.77777 0 255 0
-5.42565 3.27684 0.778258 0 255 0
-5.3968 3.36183 0.780695 0 255 0
-5.39849 3.36288 0.780939 0 255 0
-5.36771 3.44865 0.783376 0 255 0
-5.38942 3.4626 0.786545 0 255 0
-5.34882 3.54299 0.787763 0 255 0
-5.35379 3.54628 0.788495 0 255 0
-5.31031 3.62517 0.78947 0 255 0
-5.33654 3.64307 0.793369 0 255 0
-5.4705 2.6175 -0.744622 0 255 0
-5.46871 2.61664 -0.744378 0 255 0
-5.43305 2.6899 -0.744378 0 255 0
-5.44728 2.69695 -0.746328 0 255 0
-5.42225 2.78188 -0.748278 0 255 0
-5.43992 2.79094 -0.750715 0 255 0
-5.40393 2.86848 -0.751203 0 255 0
-5.41269 2.87313 -0.752421 0 255 0
-5.37604 2.9494 -0.752909 0 255 0
-5.38823 2.95608 -0.754615 0 255 0
-5.35732 3.03597 -0.756077 0 255 0
-5.37459 3.04575 -0.758515 0 255 0
-5.33551 3.12157 -0.759002 0 255 0
-5.34751 3.12859 -0.760708 0 255 0
-5.3084 3.20602 -0.76144 0 255 0
-5.34069 3.22552 -0.766071 0 255 0
-5.30076 3.302 -0.766802 0 255 0
-5.30582 3.30515 -0.767533 0 255 0
-5.26249 3.38105 -0.768021 0 255 0
-5.28253 3.39393 -0.770945 0 255 0
-5.25284 3.47941 -0.773627 0 255 0
-5.25946 3.4838 -0.774602 0 255 0
-5.21686 3.56137 -0.775576 0 255 0
-5.22506 3.56697 -0.776795 0 255 0
-5.54529 2.65329 0.973648 0 255 0
-5.56489 2.66267 0.97709 0 255 0
-5.53746 2.74159 0.978654 0 255 0
-5.54277 2.74422 0.979593 0 255 0
-5.50468 2.82417 0.979905 0 255 0
-5.51875 2.83138 0.982408 0 255 0
-5.49612 2.91742 0.985537 0 255 0
-5.50136 2.9202 0.986476 0 255 0
-5.46577 2.99862 0.987414 0 255 0
-5.46923 3.00052 0.98804 0 255 0
-5.44625 3.08636 0.991482 0 255 0
-5.46171 3.09512 0.994297 0 255 0
-5.43216 3.17811 0.9968 0 255 0
-5.43216 3.17811 0.9968 0 255 0
-5.40248 3.26284 0.999616 0 255 0
-5.416 3.27101 1.00212 0 255 0
-5.3838 3.35373 1.00462 0 255 0
-5.39554 3.36104 1.00681 0 255 0
-5.35141 3.43818 1.00744 0 255 0
-5.36969 3.44993 1.01088 0 255 0
-5.33417 3.53329 1.01338 0 255 0
-5.35229 3.54529 1.01682 0 255 0
-5.31532 3.62858 1.01933 0 255 0
-5.32837 3.63749 1.02183 0 255 0
-5.48881 2.62626 -0.532347 0 255 0
-5.50678 2.63486 -0.53409 0 255 0
-5.46909 2.70774 -0.533916 0 255 0
-5.48337 2.71482 -0.535311 0 255 0
-5.4475 2.79483 -0.535659 0 255 0
-5.44928 2.79574 -0.535833 0 255 0
-5.42907 2.88183 -0.537751 0 255 0
-5.44315 2.8893 -0.539145 0 255 0
-5.40454 2.96503 -0.53932 0 255 0
-5.40978 2.96791 -0.539843 0 255 0
-5.38741 3.05302 -0.54176 0 255 0
-5.39781 3.05891 -0.542806 0 255 0
-5.36716 3.14009 -0.544026 0 255 0
-5.3878 3.15216 -0.546118 0 255 0
-5.33985 3.22502 -0.545769 0 255 0
-5.34326 3.22708 -0.546118 0 255 0
-5.32194 3.31519 -0.548558 0 255 0
-5.33039 3.32046 -0.54943 0 255 0
-5.2986 3.40425 -0.550999 0 255 0
-5.29022 3.39887 -0.550127 0 255 0
-5.26384 3.4867 -0.552393 0 255 0
-5.28045 3.49771 -0.554136 0 255 0
-5.24426 3.58008 -0.555531 0 255 0
-5.27388 3.6003 -0.558668 0 255 0
-5.55376 2.65734 1.19675 0 255 0
-5.55908 2.65989 1.1979 0 255 0
-5.53515 2.74045 1.20057 0 255 0
-5.5545 2.75003 1.20477 0 255 0
-5.52331 2.83372 1.20668 0 255 0
-5.52505 2.83462 1.20706 0 255 0
-5.47974 2.90872 1.20591 0 255 0
-5.49708 2.91793 1.20973 0 255 0
-5.47181 3.00194 1.21316 0 255 0
-5.50108 3.01799 1.21965 0 255 0
-5.44015 3.08291 1.21545 0 255 0
-5.45382 3.09065 1.21851 0 255 0
-5.43441 3.17943 1.22385 0 255 0
-5.44966 3.18835 1.22728 0 255 0
-5.40629 3.26515 1.22767 0 255 0
-5.42142 3.27428 1.2311 0 255 0
-5.37909 3.3508 1.23186 0 255 0
-5.39242 3.3591 1.23492 0 255 0
-5.36812 3.44892 1.24026 0 255 0
-5.38464 3.45953 1.24407 0 255 0
-5.34236 3.53871 1.2456 0 255 0
-5.33581 3.53437 1.24407 0 255 0
-5.3054 3.62181 1.24865 0 255 0
-5.34107 3.64616 1.25705 0 255 0
-5.52564 2.64389 -0.321029 0 255 0
-5.52384 2.64303 -0.320924 0 255 0
-5.49856 2.72234 -0.321552 0 255 0
-5.51467 2.73031 -0.322494 0 255 0
-5.48037 2.81169 -0.322808 0 255 0
-5.49103 2.81716 -0.323436 0 255 0
-5.45116 2.89355 -0.323436 0 255 0
-5.45998 2.89824 -0.32396 0 255 0
-5.43176 2.97996 -0.324692 0 255 0
-5.44051 2.98477 -0.325216 0 255 0
-5.40579 3.06344 -0.325634 0 255 0
-5.40927 3.0654 -0.325844 0 255 0
-5.38373 3.14978 -0.32689 0 255 0
-5.3958 3.15684 -0.327623 0 255 0
-5.37513 3.24633 -0.329088 0 255 0
-5.38197 3.25046 -0.329507 0 255 0
-5.34173 3.32752 -0.329821 0 255 0
-5.34681 3.33069 -0.330135 0 255 0
-5.32499 3.42121 -0.331705 0 255 0
-5.33843 3.42985 -0.332543 0 255 0
-5.30002 3.51067 -0.333171 0 255 0
-5.30168 3.51177 -0.333275 0 255 0
-5.26698 3.59558 -0.334217 0 255 0
-5.28347 3.60685 -0.335264 0 255 0
-5.55138 2.6562 1.42079 0 255 0
-5.56544 2.66293 1.42439 0 255 0
-5.52741 2.73662 1.42394 0 255 0
-5.5309 2.73835 1.42484 0 255 0
-5.51195 2.82789 1.43024 0 255 0
-5.52582 2.83501 1.43384 0 255 0
-5.49431 2.91646 1.43609 0 255 0
-5.49603 2.91737 1.43654 0 255 0
-5.46041 2.99568 1.43789 0 255 0
-5.47749 3.00505 1.44239 0 255 0
-5.4491 3.08798 1.44599 0 255 0
-5.46436 3.09662 1.45003 0 255 0
-5.4161 3.16872 1.44868 0 255 0
-5.42619 3.17462 1.45138 0 255 0
-5.39635 3.25914 1.45543 0 255 0
-5.4147 3.27022 1.46038 0 255 0
-5.38729 3.3559 1.46533 0 255 0
-5.39391 3.36002 1.46713 0 255 0
-5.35139 3.43817 1.46848 0 255 0
-5.36778 3.4487 1.47298 0 255 0
-5.34185 3.53838 1.47928 0 255 0
-5.35323 3.54591 1.48243 0 255 0
-5.3048 3.62141 1.48288 0 255 0
-5.32412 3.63459 1.48828 0 255 0
-5.53058 2.64625 -0.107018 0 255 0
-5.53238 2.64711 -0.107053 0 255 0
-5.51065 2.72832 -0.107332 0 255 0
-5.51065 2.72832 -0.107332 0 255 0
-5.4746 2.80873 -0.107402 0 255 0
-5.50484 2.82425 -0.107995 0 255 0
-5.47371 2.90552 -0.10817 0 255 0
-5.47724 2.9074 -0.10824 0 255 0
-5.4454 2.98745 -0.108414 0 255 0
-5.45416 2.99226 -0.108589 0 255 0
-5.42457 3.07407 -0.108833 0 255 0
-5.44022 3.08295 -0.109147 0 255 0
-5.41101 3.16574 -0.109427 0 255 0
-5.41101 3.16574 -0.109427 0 255 0
-5.36799 3.24201 -0.109461 0 255 0
-5.38853 3.25442 -0.10988 0 255 0
-5.35843 3.33792 -0.110194 0 255 0
-5.38219 3.35272 -0.110683 0 255 0
-5.33653 3.42863 -0.110718 0 255 0
-5.34663 3.43511 -0.110927 0 255 0
-5.31482 3.52047 -0.111277 0 255 0
-5.32815 3.5293 -0.111556 0 255 0
-5.28496 3.60786 -0.111695 0 255 0
-5.29653 3.61575 -0.11194 0 255 0
-5.55729 2.65903 1.65075 0 255 0
-5.56426 2.66237 1.65282 0 255 0
-5.54529 2.74547 1.65799 0 255 0
-5.54876 2.74719 1.65903 0 255 0
-5.51231 2.82808 1.66007 0 255 0
-5.51403 2.82896 1.66058 0 255 0
-5.49959 2.91926 1.66835 0 255 0
-5.49959 2.91926 1.66835 0 255 0
-5.47914 3.00596 1.67456 0 255 0
-5.48253 3.00782 1.67559 0 255 0
-5.44726 3.08693 1.67766 0 255 0
-5.45566 3.09169 1.68025 0 255 0
-5.42919 3.17638 1.68543 0 255 0
-5.4442 3.18516 1.69009 0 255 0
-5.39589 3.25886 1.68905 0 255 0
-5.40085 3.26186 1.69061 0 255 0
-5.37832 3.35031 1.69785 0 255 0
-5.40455 3.36666 1.70614 0 255 0
-5.35865 3.44283 1.70665 0 255 0
-5.37815 3.45536 1.71286 0 255 0
-5.3326 3.53225 1.7139 0 255 0
-5.34227 3.53865 1.71701 0 255 0
-5.32265 3.63359 1.72684 0 255 0
-5.32584 3.63577 1.72788 0 255 0
-5.56447 1.76622 -1.5643 0 255 0
-5.51329 1.83616 -1.55706 0 255 0
-5.51329 1.83616 -1.55706 0 255 0
-5.47103 1.90628 -1.5524 0 255 0
-5.47285 1.90692 -1.55291 0 255 0
-5.45512 1.9855 -1.5555 0 255 0
-5.47509 1.99277 -1.5612 0 255 0
-5.43987 2.06532 -1.55913 0 255 0
-5.43264 2.06258 -1.55706 0 255 0
-5.40908 2.13942 -1.55861 0 255 0
-5.41806 2.14297 -1.5612 0 255 0
-5.39833 2.22283 -1.5643 0 255 0
-5.40011 2.22356 -1.56482 0 255 0
-5.36144 2.2957 -1.56275 0 255 0
-5.35078 2.29114 -1.55964 0 255 0
-5.31827 2.36562 -1.55964 0 255 0
-5.29886 2.35699 -1.55395 0 255 0
-5.25884 2.42658 -1.55188 0 255 0
-5.22551 2.41121 -1.54204 255 192 203
-5.78533 1.6611 0.105063 0 255 0
-5.79494 1.66386 0.105238 0 255 0
-5.77306 1.74519 0.105273 0 255 0
-5.77881 1.74693 0.105378 0 255 0
-5.73892 1.8216 0.105098 0 255 0
-5.74655 1.82402 0.105238 0 255 0
-5.72019 1.90507 0.105238 0 255 0
-5.72208 1.9057 0.105273 0 255 0
-5.70848 1.98902 0.105517 0 255 0
-5.69715 1.98507 0.105308 0 255 0
-5.66924 2.06344 0.105308 0 255 0
-5.69179 2.07164 0.105727 0 255 0
-5.67016 2.15276 0.105866 0 255 0
-5.67016 2.15276 0.105866 0 255 0
-5.63623 2.22926 0.105796 0 255 0
-5.63994 2.23073 0.105866 0 255 0
-5.61934 2.31383 0.106076 0 255 0
-5.63598 2.32068 0.10639 0 255 0
-5.60487 2.39994 0.106425 0 255 0
-5.59752 2.39679 0.106285 0 255 0
-5.57995 2.48202 0.106599 0 255 0
-5.58909 2.48608 0.106774 0 255 0
-5.55973 2.56542 0.106879 0 255 0
-5.56154 2.56626 0.106913 0 255 0
-5.63901 1.70467 -1.36005 0 255 0
-5.58865 1.68944 -1.34791 0 255 0
-5.58526 1.77282 -1.35286 0 255 0
-5.57225 1.76869 -1.34971 0 255 0
-5.54485 1.84667 -1.34926 0 255 0
-5.55039 1.84852 -1.35061 0 255 0
-5.51702 1.92231 -1.34881 0 255 0
-5.52622 1.92551 -1.35106 0 255 0
-5.50098 2.00219 -1.35151 0 255 0
-5.50098 2.00219 -1.35151 0 255 0
-5.48378 2.082 -1.35421 0 255 0
-5.48924 2.08407 -1.35556 0 255 0
-5.46361 2.16099 -1.35645 0 255 0
-5.45999 2.15956 -1.35556 0 255 0
-5.4275 2.23484 -1.35511 0 255 0
-5.44372 2.24152 -1.35915 0 255 0
-5.42085 2.32114 -1.3614 0 255 0
-5.42801 2.32421 -1.3632 0 255 0
-5.38435 2.39502 -1.3605 0 255 0
-5.39147 2.39818 -1.3623 0 255 0
-5.36851 2.47719 -1.365 0 255 0
-5.37913 2.48209 -1.3677 0 255 0
-5.80708 1.66735 0.316633 0 255 0
-5.79556 1.66404 0.316005 0 255 0
-5.76985 1.74422 0.3159 0 255 0
-5.7775 1.74653 0.316319 0 255 0
-5.75477 1.82663 0.316423 0 255 0
-5.7662 1.83025 0.317051 0 255 0
-5.72648 1.90717 0.316319 0 255 0
-5.73406 1.90969 0.316737 0 255 0
-5.7185 1.99251 0.317365 0 255 0
-5.72039 1.99317 0.31747 0 255 0
-5.70362 2.07595 0.318098 0 255 0
-5.69987 2.07458 0.317889 0 255 0
-5.66699 2.15156 0.317679 0 255 0
-5.6838 2.15794 0.318621 0 255 0
-5.65722 2.23757 0.318831 0 255 0
-5.67208 2.24344 0.319668 0 255 0
-5.62727 2.3171 0.318935 0 255 0
-5.63466 2.32014 0.319354 0 255 0
-5.61273 2.4033 0.319982 0 255 0
-5.62558 2.4088 0.320715 0 255 0
-5.59505 2.48874 0.320924 0 255 0
-5.59323 2.48793 0.320819 0 255 0
-5.56927 2.56983 0.321447 0 255 0
-5.5856 2.57736 0.322389 0 255 0
-5.66481 1.6265 -1.14562 0 255 0
-5.65726 1.62433 -1.14409 0 255 0
-5.62276 1.69975 -1.1418 0 255 0
-5.63591 1.70373 -1.14447 0 255 0
-5.61001 1.78068 -1.14409 0 255 0
-5.62124 1.78424 -1.14638 0 255 0
-5.59918 1.86477 -1.14714 0 255 0
-5.59918 1.86477 -1.14714 0 255 0
-5.56181 1.93792 -1.14485 0 255 0
-5.5785 1.94373 -1.14829 0 255 0
-5.54564 2.01845 -1.14714 0 255 0
-5.56593 2.02583 -1.15134 0 255 0
-5.53563 2.10168 -1.15096 0 255 0
-5.54297 2.10447 -1.15249 0 255 0
-5.51708 2.18214 -1.15325 0 255 0
-5.51343 2.1807 -1.15249 0 255 0
-5.49334 2.26195 -1.15478 0 255 0
-5.49516 2.2627 -1.15516 0 255 0
-5.47205 2.34306 -1.15707 0 255 0
-5.48108 2.34693 -1.15897 0 255 0
-5.45854 2.42801 -1.16126 0 255 0
-5.46033 2.42881 -1.16165 0 255 0
-5.42097 2.5014 -1.1605 0 255 0
-5.43702 2.5088 -1.16393 0 255 0
-5.80824 1.66768 0.528687 0 255 0
-5.80633 1.66713 0.528512 0 255 0
-5.79774 1.75265 0.529907 0 255 0
-5.78249 1.74804 0.528512 0 255 0
-5.74264 1.82278 0.527118 0 255 0
-5.76353 1.82941 0.529035 0 255 0
-5.74654 1.91385 0.529907 0 255 0
-5.756 1.917 0.530778 0 255 0
-5.71773 1.99224 0.529733 0 255 0
-5.72149 1.99355 0.530081 0 255 0
-5.70095 2.07498 0.530778 0 255 0
-5.7178 2.08111 0.532347 0 255 0
-5.69229 2.16116 0.532696 0 255 0
-5.68856 2.15975 0.532347 0 255 0
-5.66195 2.23944 0.532696 0 255 0
-5.6638 2.24017 0.53287 0 255 0
-5.65961 2.33041 0.535485 0 255 0
-5.65408 2.32814 0.534962 0 255 0
-5.61004 2.40215 0.533916 0 255 0
-5.62103 2.40685 0.534962 0 255 0
-5.59415 2.48834 0.535659 0 255 0
-5.616 2.49806 0.537751 0 255 0
-5.58464 2.57692 0.5381 0 255 0
-5.59007 2.57942 0.538622 0 255 0
-5.6865 1.63273 -0.937042 0 255 0
-5.69219 1.63436 -0.937981 0 255 0
-5.66693 1.71311 -0.937668 0 255 0
-5.66693 1.71311 -0.937668 0 255 0
-5.64277 1.79108 -0.937668 0 255 0
-5.64465 1.79167 -0.937981 0 255 0
-5.62438 1.87316 -0.93892 0 255 0
-5.63188 1.87566 -0.940171 0 255 0
-5.60548 1.95313 -0.940171 0 255 0
-5.60175 1.95183 -0.939545 0 255 0
-5.58359 2.03226 -0.94111 0 255 0
-5.58545 2.03294 -0.941423 0 255 0
-5.56427 2.11256 -0.942674 0 255 0
-5.57166 2.11536 -0.943926 0 255 0
-5.5438 2.19271 -0.944238 0 255 0
-5.54931 2.19489 -0.945177 0 255 0
-5.52361 2.27441 -0.946116 0 255 0
-5.53274 2.27817 -0.94768 0 255 0
-5.50947 2.35909 -0.949244 0 255 0
-5.50039 2.3552 -0.94768 0 255 0
-5.476 2.43578 -0.949244 0 255 0
-5.48322 2.43899 -0.950496 0 255 0
-5.4688 2.52346 -0.953937 0 255 0
-5.467 2.52264 -0.953624 0 255 0
-5.81177 1.6687 0.742428 0 255 0
-5.80605 1.66705 0.741697 0 255 0
-5.78791 1.74968 0.742428 0 255 0
-5.79741 1.75255 0.743647 0 255 0
-5.77837 1.83412 0.744378 0 255 0
-5.7708 1.83172 0.743403 0 255 0
-5.74057 1.91186 0.742916 0 255 0
-5.75563 1.91688 0.744865 0 255 0
-5.7399 1.99997 0.746328 0 255 0
-5.74553 2.00193 0.747059 0 255 0
-5.70619 2.07688 0.745597 0 255 0
-5.70805 2.07756 0.74584 0 255 0
-5.69557 2.16241 0.748034 0 255 0
-5.69557 2.16241 0.748034 0 255 0
-5.67629 2.24511 0.749496 0 255 0
-5.67444 2.24438 0.749253 0 255 0
-5.65173 2.32717 0.750471 0 255 0
-5.66274 2.3317 0.751934 0 255 0
-5.63876 2.41445 0.753153 0 255 0
-5.63511 2.41288 0.752665 0 255 0
-5.60269 2.49213 0.752909 0 255 0
-5.59724 2.48971 0.752178 0 255 0
-5.59303 2.58079 0.756321 0 255 0
-5.60024 2.58412 0.757296 0 255 0
-5.72973 1.64514 -0.731947 0 255 0
-5.7221 1.64295 -0.730972 0 255 0
-5.7024 1.72383 -0.73146 0 255 0
-5.71 1.72613 -0.732435 0 255 0
-5.66863 1.79928 -0.730241 0 255 0
-5.68377 1.80409 -0.732191 0 255 0
-5.6577 1.88426 -0.732191 0 255 0
-5.65393 1.883 -0.731704 0 255 0
-5.63118 1.96209 -0.732191 0 255 0
-5.64618 1.96731 -0.734141 0 255 0
-5.61851 2.04497 -0.734141 0 255 0
-5.60732 2.0409 -0.732678 0 255 0
-5.58236 2.11943 -0.733166 0 255 0
-5.5935 2.12365 -0.734628 0 255 0
-5.57107 2.20349 -0.735603 0 255 0
-5.57476 2.20495 -0.736091 0 255 0
-5.53976 2.28106 -0.735603 0 255 0
-5.54343 2.28257 -0.736091 0 255 0
-5.52744 2.36678 -0.738284 0 255 0
-5.54022 2.37225 -0.739991 0 255 0
-5.50837 2.45018 -0.740234 0 255 0
-5.51381 2.4526 -0.740966 0 255 0
-5.47406 2.5259 -0.740234 0 255 0
-5.49029 2.53338 -0.742428 0 255 0
-5.80042 1.66543 0.955815 0 255 0
-5.81181 1.66871 0.957692 0 255 0
-5.77471 1.74569 0.955502 0 255 0
-5.77093 1.74454 0.954876 0 255 0
-5.75386 1.82634 0.956127 0 255 0
-5.77457 1.83291 0.959569 0 255 0
-5.74995 1.91498 0.959882 0 255 0
-5.74433 1.91311 0.958943 0 255 0
-5.71554 1.99148 0.95863 0 255 0
-5.723 1.99408 0.959882 0 255 0
-5.69311 2.07212 0.959569 0 255 0
-5.71167 2.07888 0.962698 0 255 0
-5.67877 2.15603 0.962072 0 255 0
-5.68431 2.15813 0.963011 0 255 0
-5.6632 2.23993 0.964575 0 255 0
-5.66687 2.24139 0.965201 0 255 0
-5.64051 2.32255 0.966139 0 255 0
-5.63868 2.32179 0.965826 0 255 0
-5.60935 2.40185 0.966452 0 255 0
-5.62206 2.40729 0.968642 0 255 0
-5.59512 2.48877 0.969894 0 255 0
-5.60595 2.49358 0.971771 0 255 0
-5.57103 2.57064 0.971771 0 255 0
-5.57283 2.57147 0.972084 0 255 0
-5.75462 1.65229 -0.523806 0 255 0
-5.76037 1.65394 -0.524329 0 255 0
-5.72336 1.73017 -0.523109 0 255 0
-5.72336 1.73017 -0.523109 0 255 0
-5.70466 1.81072 -0.523632 0 255 0
-5.69137 1.8065 -0.522412 0 255 0
-5.6974 1.89748 -0.525375 0 255 0
-5.69551 1.89685 -0.5252 0 255 0
-5.65188 1.9693 -0.523632 0 255 0
-5.64435 1.96668 -0.522934 0 255 0
-5.64291 2.05385 -0.525375 0 255 0
-5.64666 2.05521 -0.525723 0 255 0
-5.63082 2.13782 -0.526944 0 255 0
-5.62523 2.1357 -0.526421 0 255 0
-5.59711 2.21379 -0.526595 0 255 0
-5.60266 2.21599 -0.527118 0 255 0
-5.57855 2.29703 -0.527815 0 255 0
-5.59144 2.30234 -0.529035 0 255 0
-5.54776 2.37548 -0.52799 0 255 0
-5.55875 2.38019 -0.529035 0 255 0
-5.5359 2.46243 -0.530081 0 255 0
-5.545 2.46648 -0.530953 0 255 0
-5.52313 2.54854 -0.532173 0 255 0
-5.51409 2.54436 -0.531301 0 255 0
-5.81011 1.66822 1.175 0 255 0
-5.80256 1.66605 1.17348 0 255 0
-5.79189 1.75088 1.17615 0 255 0
-5.79941 1.75315 1.17767 0 255 0
-5.77468 1.83295 1.17767 0 255 0
-5.7541 1.82641 1.17348 0 255 0
-5.74074 1.91192 1.17615 0 255 0
-5.75751 1.9175 1.17958 0 255 0
-5.73423 1.99799 1.18034 0 255 0
-5.71569 1.99153 1.17653 0 255 0
-5.7006 2.07485 1.1792 0 255 0
-5.70429 2.07619 1.17996 0 255 0
-5.68797 2.15952 1.18263 0 255 0
-5.69715 2.16301 1.18454 0 255 0
-5.64305 2.23196 1.17958 0 255 0
-5.66861 2.24207 1.18492 0 255 0
-5.64402 2.32399 1.18645 0 255 0
-5.65309 2.32773 1.18836 0 255 0
-5.62907 2.4103 1.19027 0 255 0
-5.62004 2.40643 1.18836 0 255 0
-5.58231 2.48307 1.1876 0 255 0
-5.59666 2.48945 1.19065 0 255 0
-5.58141 2.57543 1.19485 0 255 0
-5.58854 2.57872 1.19637 0 255 0
-5.75525 1.65247 -0.313806 0 255 0
-5.75717 1.65302 -0.313911 0 255 0
-5.75838 1.74075 -0.315272 0 255 0
-5.745 1.73671 -0.314539 0 255 0
-5.72241 1.81636 -0.314644 0 255 0
-5.7148 1.81394 -0.314225 0 255 0
-5.69616 1.89707 -0.314644 0 255 0
-5.69995 1.89833 -0.314853 0 255 0
-5.68078 1.97937 -0.315272 0 255 0
-5.69398 1.98397 -0.316005 0 255 0
-5.64357 2.05409 -0.314748 0 255 0
-5.65483 2.05819 -0.315376 0 255 0
-5.64645 2.14376 -0.316528 0 255 0
-5.63898 2.14092 -0.316109 0 255 0
-5.6145 2.22067 -0.316423 0 255 0
-5.62007 2.22287 -0.316737 0 255 0
-5.58849 2.30113 -0.316737 0 255 0
-5.59403 2.30341 -0.317051 0 255 0
-5.57785 2.38836 -0.317993 0 255 0
-5.59621 2.39623 -0.31904 0 255 0
-5.56038 2.47332 -0.318935 0 255 0
-5.55673 2.47169 -0.318726 0 255 0
-5.54207 2.55728 -0.319877 0 255 0
-5.54933 2.56062 -0.320296 0 255 0
-5.79713 1.66449 1.39245 0 255 0
-5.799 1.66503 1.3929 0 255 0
-5.77705 1.7464 1.39335 0 255 0
-5.78078 1.74752 1.39425 0 255 0
-5.76357 1.82942 1.39605 0 255 0
-5.76543 1.83001 1.3965 0 255 0
-5.72604 1.90702 1.39335 0 255 0
-5.72973 1.90825 1.39425 0 255 0
-5.72128 1.99348 1.39875 0 255 0
-5.72496 1.99476 1.39965 0 255 0
-5.71157 2.07884 1.40324 0 255 0
-5.70058 2.07484 1.40055 0 255 0
-5.67689 2.15532 1.40189 0 255 0
-5.68054 2.1567 1.40279 0 255 0
-5.66476 2.24055 1.40639 0 255 0
-5.66295 2.23983 1.40594 0 255 0
-5.63292 2.31942 1.40639 0 255 0
-5.63292 2.31942 1.40639 0 255 0
-5.61791 2.40552 1.41089 0 255 0
-5.62328 2.40782 1.41224 0 255 0
-5.59802 2.49006 1.41449 0 255 0
-5.59623 2.48926 1.41404 0 255 0
-5.56669 2.56864 1.41539 0 255 0
-5.58085 2.57517 1.41899 0 255 0
-5.78149 1.66 -0.104994 0 255 0
-5.79302 1.66331 -0.105203 0 255 0
-5.76158 1.74172 -0.105063 0 255 0
-5.75966 1.74114 -0.105029 0 255 0
-5.7313 1.81918 -0.104959 0 255 0
-5.74845 1.82462 -0.105273 0 255 0
-5.71449 1.90317 -0.105133 0 255 0
-5.72778 1.9076 -0.105378 0 255 0
-5.68771 1.98178 -0.105133 0 255 0
-5.70659 1.98836 -0.105482 0 255 0
-5.68052 2.06754 -0.105517 0 255 0
-5.68052 2.06754 -0.105517 0 255 0
-5.65521 2.14708 -0.105587 0 255 0
-5.65708 2.14779 -0.105622 0 255 0
-5.64366 2.23221 -0.105936 0 255 0
-5.64738 2.23368 -0.106006 0 255 0
-5.61564 2.31231 -0.106006 0 255 0
-5.61934 2.31383 -0.106076 0 255 0
-5.59017 2.39364 -0.106146 0 255 0
-5.60487 2.39994 -0.106425 0 255 0
-5.57447 2.47958 -0.106495 0 255 0
-5.58909 2.48608 -0.106774 0 255 0
-5.54702 2.55956 -0.106634 0 255 0
-5.5561 2.56375 -0.106809 0 255 0
-5.79145 1.66286 1.61451 0 255 0
-5.80259 1.66606 1.61762 0 255 0
-5.77506 1.74579 1.61658 0 255 0
-5.76582 1.743 1.614 0 255 0
-5.75781 1.82759 1.61865 0 255 0
-5.75781 1.82759 1.61865 0 255 0
-5.7479 1.9143 1.62331 0 255 0
-5.73506 1.91003 1.61969 0 255 0
-5.71183 1.99019 1.62072 0 255 0
-5.71183 1.99019 1.62072 0 255 0
-5.69656 2.07338 1.62435 0 255 0
-5.70745 2.07734 1.62745 0 255 0
-5.68188 2.15721 1.62849 0 255 0
-5.68007 2.15652 1.62797 0 255 0
-5.65339 2.23605 1.62901 0 255 0
-5.66058 2.2389 1.63108 0 255 0
-5.6377 2.32139 1.63367 0 255 0
-5.6502 2.32654 1.63729 0 255 0
-5.60651 2.40064 1.63418 0 255 0
-5.62782 2.40976 1.6404 0 255 0
-5.59539 2.48889 1.64091 0 255 0
-5.60598 2.4936 1.64402 0 255 0
-5.58335 2.57632 1.64764 0 255 0
-5.57809 2.57389 1.64609 0 255 0
-5.7968 0.659438 -1.56327 0 255 0
-5.79297 0.659001 -1.56223 0 255 0
-5.77183 0.737341 -1.55913 0 255 0
-5.76991 0.737096 -1.55861 0 255 0
-5.76466 0.819406 -1.56016 0 255 0
-5.75127 0.817502 -1.55654 0 255 0
-5.74342 0.896315 -1.55757 0 255 0
-5.72815 0.893932 -1.55343 0 255 0
-5.71702 0.974147 -1.55395 0 255 0
-5.71511 0.973823 -1.55343 0 255 0
-5.69146 1.05177 -1.55084 0 255 0
-5.71046 1.05528 -1.55602 0 255 0
-6.03416 0.686438 0.106006 0 255 0
-6.03416 0.686438 0.106006 0 255 0
-6.01817 0.76881 0.105901 0 255 0
-5.99833 0.766276 0.105552 0 255 0
-5.98888 0.851277 0.105587 0 255 0
-5.98888 0.851277 0.105587 0 255 0
-5.97278 0.932109 0.105517 0 255 0
-5.97278 0.932109 0.105517 0 255 0
-5.9513 1.01407 0.105378 0 255 0
-5.94933 1.01373 0.105343 0 255 0
-5.93263 1.09634 0.105308 0 255 0
-5.93067 1.09597 0.105273 0 255 0
-5.92087 1.17881 0.105378 0 255 0
-5.90518 1.17569 0.105098 0 255 0
-5.87646 1.25551 0.104889 0 255 0
-5.88624 1.2576 0.105063 0 255 0
-5.87614 1.34042 0.105203 0 255 0
-5.86639 1.3382 0.105029 0 255 0
-5.83547 1.41714 0.104819 0 255 0
-5.84325 1.41903 0.104959 0 255 0
-5.83862 1.50345 0.105238 0 255 0
-5.83475 1.50245 0.105168 0 255 0
-5.80934 1.58272 0.105098 0 255 0
-5.80548 1.58167 0.105029 0 255 0
-5.84942 0.665423 -1.35915 0 255 0
-5.84748 0.665202 -1.3587 0 255 0
-5.83582 0.745515 -1.35825 0 255 0
-5.83389 0.745268 -1.3578 0 255 0
-5.81119 0.82602 -1.35511 0 255 0
-5.8054 0.825198 -1.35376 0 255 0
-5.78978 0.90355 -1.35286 0 255 0
-5.78401 0.902649 -1.35151 0 255 0
-5.76892 0.982991 -1.35106 0 255 0
-5.767 0.982663 -1.35061 0 255 0
-5.75271 1.06309 -1.35061 0 255 0
-5.76038 1.0645 -1.35241 0 255 0
-5.7184 1.1385 -1.34611 0 255 0
-6.04665 0.68786 0.318935 0 255 0
-6.03474 0.686505 0.318307 0 255 0
-6.03659 0.771163 0.318935 0 255 0
-6.02074 0.769139 0.318098 0 255 0
-6.00927 0.854175 0.318098 0 255 0
-5.99542 0.852208 0.317365 0 255 0
-5.98327 0.933745 0.317365 0 255 0
-5.98327 0.933745 0.317365 0 255 0
-5.96177 1.01585 0.316947 0 255 0
-5.97162 1.01753 0.31747 0 255 0
-5.93719 1.09718 0.316423 0 255 0
-5.93719 1.09718 0.316423 0 255 0
-5.91954 1.17854 0.316319 0 255 0
-5.92345 1.17932 0.316528 0 255 0
-5.90836 1.26233 0.316633 0 255 0
-5.90055 1.26066 0.316214 0 255 0
-5.87287 1.33967 0.31569 0 255 0
-5.87482 1.34012 0.315795 0 255 0
-5.86524 1.42437 0.316319 0 255 0
-5.87106 1.42578 0.316633 0 255 0
-5.83344 1.50211 0.31569 0 255 0
-5.83537 1.50261 0.315795 0 255 0
-5.81961 1.58552 0.316109 0 255 0
-5.8331 1.58919 0.316842 0 255 0
-5.90079 0.671266 -1.15439 0 255 0
-5.88323 0.669269 -1.15096 0 255 0
-5.8676 0.749575 -1.14981 0 255 0
-5.87539 0.75057 -1.15134 0 255 0
